# .PCD v0.7 - Point Cloud Data file format
VERSION 0.7
FIELDS x y z rgb
SIZE 4 4 4 4
TYPE F F F F
COUNT 1 1 1 1
WIDTH 1038
HEIGHT 1
VIEWPOINT 0 0 0 1 0 0 0
POINTS 1038
DATA ascii
0.3013086 -0.10793144 1.5740001 1.1692688e-38
0.2953124 -0.095039628 1.5740002 1.1599043e-38
0.29488412 -0.084589131 1.5740002 1.1506133e-38
0.29963717 -0.18369715 1.5810001 1.3901039e-38
0.30508441 -0.18353125 1.5874002 1.3900317e-38
0.29863337 -0.17516479 1.5810002 1.371666e-38
0.30493668 -0.17327668 1.5890001 1.3625196e-38
0.29963717 -0.16412286 1.5810001 1.3623397e-38
0.30569333 -0.16495335 1.5890001 1.3623044e-38
0.29963717 -0.15508859 1.5810001 1.33486e-38
0.30493668 -0.15663001 1.5890001 1.3531553e-38
0.29963717 -0.14756 1.5810001 1.3072366e-38
0.30341429 -0.1449219 1.585 1.3254972e-38
0.3026486 -0.13400859 1.5810001 1.2887285e-38
0.30447182 -0.12462191 1.5842001 1.2702528e-38
0.30538344 -0.11628896 1.5858002 1.1967843e-38
0.31023335 -0.11198667 1.5890001 1.2519209e-38
0.30538344 -0.10360744 1.5858001 1.1875636e-38
0.31023335 -0.10593334 1.5890001 1.2151135e-38
0.29963717 -0.093354285 1.5810001 1.1507209e-38
0.30455381 -0.095972866 1.5870001 1.1690171e-38
0.29813147 -0.088837147 1.5810001 1.1414299e-38
0.30415943 -0.085313335 1.5826002 1.1322829e-38
0.30856001 -0.18088001 1.5960001 1.3900333e-38
0.30856001 -0.17632002 1.5960001 1.3717035e-38
0.30856001 -0.15352002 1.5960001 1.3438287e-38
0.30856001 -0.1444 1.5960001 1.3621598e-38
0.31261337 -0.14338669 1.5960001 1.3530121e-38
0.30856001 -0.13528001 1.5960001 1.3070592e-38
0.31160003 -0.13679999 1.5960001 1.316278e-38
0.30856001 -0.1292 1.5960001 1.3162783e-38
0.31160003 -0.12312001 1.5960001 1.2518496e-38
0.31362671 -0.11400001 1.5960001 1.2518496e-38
0.31362671 -0.10488001 1.5960001 1.2242269e-38
0.30856001 -0.094240002 1.5960001 1.1689458e-38
0.31160003 -0.09576001 1.5960001 1.1782378e-38
0.30856001 -0.089680001 1.5960001 1.1505788e-38
0.31160003 -0.088160008 1.5960001 1.1415396e-38
0.31479868 -0.18594801 1.603 1.3992182e-38
0.32212666 -0.18778001 1.603 1.4635761e-38
0.31418803 -0.17556667 1.603 1.3717049e-38
0.31487501 -0.163735 1.6029999 1.3807432e-38
0.31563836 -0.15419334 1.6029999 1.3529776e-38
0.31500226 -0.14605111 1.603 1.3346453e-38
0.31500226 -0.13587335 1.603 1.3255688e-38
0.31652892 -0.1241689 1.603 1.2612844e-38
0.31831002 -0.11526333 1.603 1.2610335e-38
0.32212666 -0.11297333 1.603 1.2701801e-38
0.31805557 -0.10534 1.603 1.2242647e-38
0.32212666 -0.10839333 1.603 1.2518138e-38
0.31663069 -0.094348006 1.603 1.1783097e-38
0.31602001 -0.087020002 1.603 1.1324275e-38
0.31759715 -0.18411429 1.6110001 1.3624483e-38
0.32498026 -0.18391007 1.6150001 1.4084391e-38
0.33130476 -0.18337333 1.618 1.426806e-38
0.31759715 -0.1733743 1.6110001 1.3808162e-38
0.32397047 -0.17476529 1.6135455 1.3992184e-38
0.33130476 -0.17412762 1.618 1.3992177e-38
0.32411784 -0.16455215 1.6110001 1.3808856e-38
0.33130476 -0.16488191 1.618 1.3625185e-38
0.32461104 -0.15496287 1.6110002 1.3714882e-38
0.33130476 -0.15563619 1.618 1.3717028e-38
0.3245284 -0.14486553 1.6135455 1.3714512e-38
0.33130476 -0.14639047 1.618 1.3807071e-38
0.31759715 -0.13194858 1.6110001 1.288799e-38
0.32258368 -0.13460816 1.6140001 1.3255328e-38
0.3252196 -0.12494694 1.6140001 1.2521371e-38
0.32639071 -0.1159669 1.6127501 1.2702525e-38
0.33130476 -0.11248952 1.618 1.3162402e-38
0.32499382 -0.10491731 1.6121668 1.2242995e-38
0.33130476 -0.10940763 1.618 1.3345723e-38
0.32386521 -0.095431753 1.6133333 1.1874578e-38
0.32290334 -0.087644286 1.6145 1.1689096e-38
0.33758861 -0.18118286 1.626 1.4543918e-38
0.33604002 -0.17808571 1.626 1.4636107e-38
0.33604002 -0.16414858 1.626 1.3716672e-38
0.33604002 -0.15485714 1.626 1.3717388e-38
0.33397526 -0.14401715 1.6260002 1.371524e-38
0.32984573 -0.13472572 1.6260002 1.3256056e-38
0.33294284 -0.13627429 1.626 1.3256058e-38
0.33371714 -0.12466002 1.626 1.2613205e-38
0.33397526 -0.11717524 1.6260002 1.279544e-38
0.32984573 -0.10065714 1.626 1.205968e-38
0.33294284 -0.10530286 1.626 1.2519213e-38
0.32984573 -0.091365717 1.626 1.2058235e-38
0.33294284 -0.09601143 1.626 1.2150803e-38
0.32984573 -0.088268571 1.626 1.2149329e-38
0.33769333 -0.18518668 1.6340001 1.4268412e-38
0.33769333 -0.17429334 1.6340001 1.3900338e-38
0.34080571 -0.17584953 1.6340002 1.4359876e-38
0.33769333 -0.16962476 1.6340001 1.3808495e-38
0.34080571 -0.1649562 1.6340001 1.3901056e-38
0.34158379 -0.15328477 1.6340001 1.3808865e-38
0.33769333 -0.14472571 1.6340001 1.3623764e-38
0.34080571 -0.14628191 1.6340001 1.3715956e-38
0.33691525 -0.13461047 1.6340001 1.3256056e-38
0.33769333 -0.12760761 1.6340001 1.2705038e-38
0.34080571 -0.12449524 1.6340001 1.2337339e-38
0.33769333 -0.11463936 1.6340002 1.2794717e-38
0.34142819 -0.11546934 1.6340001 1.2611766e-38
0.33665591 -0.10426477 1.6340002 1.2427375e-38
0.33613718 -0.093371436 1.6340001 1.2058239e-38
0.33458099 -0.088702857 1.6340001 1.2517393e-38
0.33914 -0.18910572 1.641 1.4176934e-38
0.34467047 -0.18642953 1.6450001 1.4268045e-38
0.35021624 -0.18374573 1.649 1.4360601e-38
0.34673104 -0.17437023 1.641 1.4268398e-38
0.35335717 -0.17589334 1.649 1.4086173e-38
0.34539145 -0.16410001 1.6410002 1.3809226e-38
0.35021624 -0.1649 1.649 1.3717396e-38
0.34726688 -0.155348 1.641 1.3717396e-38
0.35250002 -0.15353715 1.645 1.3992907e-38
0.34572819 -0.14548439 1.6425999 1.3440446e-38
0.35021621 -0.14448382 1.649 1.3441167e-38
0.34501401 -0.13544995 1.6455715 1.3348607e-38
0.34460998 -0.12502857 1.641 1.2704682e-38
0.35021621 -0.12249715 1.649 1.2887997e-38
0.34643334 -0.11408858 1.6410002 1.2703599e-38
0.3517867 -0.11464477 1.649 1.2887261e-38
0.33914 -0.10158572 1.641 1.2243704e-38
0.34382856 -0.10471144 1.641 1.2427729e-38
0.35021621 -0.10679238 1.649 1.2611769e-38
0.33914 -0.095334291 1.641 1.1966761e-38
0.34382856 -0.095334291 1.641 1.1967477e-38
0.35021621 -0.092658095 1.649 1.2517773e-38
0.33914 -0.087520003 1.641 1.2334449e-38
0.34438986 -0.08609429 1.6436666 1.2059318e-38
0.35335714 -0.08637619 1.649 1.2701451e-38
0.35507143 -0.18463716 1.6570001 1.4178009e-38
0.35664952 -0.17201239 1.6570001 1.417693e-38
0.35507143 -0.16570002 1.6570001 1.4084385e-38
0.35507143 -0.15938763 1.6570001 1.3992924e-38
0.35349333 -0.14518476 1.6570001 1.3533722e-38
0.35191524 -0.13413811 1.6570001 1.325749e-38
0.35401937 -0.12466952 1.6570001 1.3071669e-38
0.35743856 -0.11441191 1.6570001 1.3071298e-38
0.3613838 -0.11835714 1.6570001 1.343865e-38
0.35559747 -0.10573238 1.6569999 1.2794724e-38
0.35380897 -0.096895054 1.6569999 1.2702161e-38
0.35664952 -0.08469113 1.6569999 1.2517777e-38
0.36348793 -0.085217148 1.6569999 1.25185e-38
0.35822761 -0.07732667 1.6570001 1.1874563e-38
0.3613838 -0.07732667 1.6570001 1.2059668e-38
0.35678574 -0.19187143 1.6650001 1.4361318e-38
0.35995716 -0.1776 1.6650001 1.3995055e-38
0.36312857 -0.17284288 1.6650001 1.42702e-38
0.35995716 -0.1649143 1.6650001 1.4451724e-38
0.3631286 -0.16650002 1.6650002 1.4360956e-38
0.35995716 -0.1538143 1.6650002 1.4176215e-38
0.36312857 -0.15540001 1.6650001 1.4084022e-38
0.35757861 -0.14509287 1.6650001 1.3624483e-38
0.35805431 -0.13415144 1.6650002 1.3440442e-38
0.3591643 -0.12606429 1.6650001 1.3347179e-38
0.3652429 -0.12315714 1.6650002 1.3256061e-38
0.36503145 -0.11512285 1.6650002 1.3163501e-38
0.35995716 -0.10307144 1.6650001 1.3254973e-38
0.36392143 -0.10624287 1.6650001 1.2794724e-38
0.35995716 -0.096728578 1.6650002 1.3344651e-38
0.36439714 -0.094825722 1.6650002 1.2703243e-38
0.36947143 -0.084042862 1.6650001 1.2519576e-38
0.36487335 -0.19279334 1.6730001 1.445458e-38
0.36407667 -0.18243667 1.6730001 1.4086893e-38
0.36726335 -0.17447002 1.6730001 1.4270199e-38
0.36726335 -0.16331667 1.6730001 1.4360594e-38
0.36726335 -0.15375668 1.6730001 1.4084016e-38
0.36527172 -0.144595 1.6730002 1.3807786e-38
0.3712467 -0.14340001 1.6730001 1.4174048e-38
0.36578387 -0.13588858 1.6730002 1.3715223e-38
0.3712467 -0.13543335 1.6730001 1.399038e-38
0.36593556 -0.12799779 1.6730001 1.3347535e-38
0.3712467 -0.12587334 1.6730001 1.3073829e-38
0.3712467 -0.11631334 1.6730001 1.3256417e-38
0.36806005 -0.10462889 1.6730001 1.2428099e-38
0.36806002 -0.097193338 1.6730001 1.2336971e-38
0.3712467 -0.090820007 1.6730001 1.2611773e-38
0.36806002 -0.081260003 1.6730001 1.233482e-38
0.37443337 -0.084446669 1.6730002 1.2519216e-38
0.36806002 -0.078073338 1.6730001 1.2151864e-38
0.3712467 -0.078073338 1.6730001 1.2243344e-38
0.36661813 -0.19051334 1.6810001 1.4362391e-38
0.36661813 -0.18571049 1.6810001 1.4178727e-38
0.37302193 -0.18090764 1.6810001 1.4639354e-38
0.37302193 -0.17450385 1.6810001 1.4362033e-38
0.37302193 -0.1648981 1.6810001 1.4452415e-38
0.37302193 -0.15529239 1.6810001 1.3992537e-38
0.37462288 -0.14568667 1.6810001 1.4359157e-38
0.37622386 -0.13608097 1.6810001 1.4265894e-38
0.37686422 -0.12455411 1.6810001 1.3074539e-38
0.37515652 -0.11366762 1.6810001 1.3255335e-38
0.37302193 -0.10406192 1.6810001 1.2612135e-38
0.37408924 -0.094456196 1.6810001 1.2611413e-38
0.37942573 -0.083249524 1.6810001 1.2611769e-38
0.37662858 -0.19153333 1.6900001 1.4638252e-38
0.38488001 -0.19244 1.6980001 1.4820863e-38
0.37437525 -0.18573907 1.6900002 1.4730458e-38
0.38196918 -0.18661828 1.6980002 1.4913048e-38
0.37823811 -0.17704764 1.6900001 1.4454234e-38
0.3821848 -0.17411241 1.6980002 1.4453162e-38
0.37823814 -0.16578096 1.6900001 1.4636103e-38
0.38404006 -0.1648178 1.6966667 1.4452805e-38
0.37823814 -0.15612382 1.6900001 1.3992538e-38
0.38457906 -0.15350541 1.6966667 1.426769e-38
0.37823811 -0.14807619 1.6900001 1.4267322e-38
0.38457906 -0.14381525 1.6966667 1.4266967e-38
0.38397717 -0.13390666 1.6940001 1.3807435e-38
0.38572112 -0.12380872 1.6945714 1.3532995e-38
0.37823811 -0.11105714 1.6900001 1.3256408e-38
0.38541573 -0.11421001 1.6949999 1.3623031e-38
0.37823814 -0.10461906 1.6900001 1.2979467e-38
0.38541573 -0.10533287 1.6950002 1.3163131e-38
0.37823811 -0.096571431 1.6900001 1.2703604e-38
0.38479918 -0.094756745 1.6945717 1.2795081e-38
0.38685048 -0.086412378 1.696 1.270325e-38
0.38831809 -0.19009714 1.7060001 1.472975e-38
0.39156765 -0.19172192 1.7060001 1.4821584e-38
0.38750571 -0.18278572 1.7060001 1.4546067e-38
0.39156765 -0.18684763 1.7060001 1.4363128e-38
0.38831812 -0.17384952 1.7060001 1.4452806e-38
0.39156765 -0.17709905 1.7060001 1.4636836e-38
0.38831809 -0.16085143 1.7060001 1.4360968e-38
0.39156765 -0.15435238 1.7060001 1.4176581e-38
0.39156765 -0.14460382 1.7060001 1.4083293e-38
0.39156765 -0.13485524 1.7060001 1.371559e-38
0.39319241 -0.12673143 1.7060001 1.3440805e-38
0.39400476 -0.11617048 1.7060001 1.3073103e-38
0.39574564 -0.10514531 1.7060002 1.3346819e-38
0.39522338 -0.096267149 1.7060002 1.3163502e-38
0.3948172 -0.085183948 1.7060002 1.2979116e-38
0.3969 -0.19273333 1.715 1.4820142e-38
0.40180004 -0.19436666 1.715 1.5553745e-38
0.39559332 -0.18391334 1.715 1.4545365e-38
0.39559332 -0.17411332 1.715 1.4636111e-38
0.39493999 -0.16562 1.715 1.4178726e-38
0.39581114 -0.15516667 1.715 1.4176938e-38
0.39690003 -0.14536667 1.715 1.4083658e-38
0.39690003 -0.13556668 1.715 1.3715235e-38
0.3969 -0.12576666 1.715 1.3440449e-38
0.40016669 -0.11433333 1.715 1.3256419e-38
0.40180004 -0.089833334 1.715 1.3255702e-38
0.4036743 -0.19199143 1.723 1.5187839e-38
0.40285382 -0.18624809 1.723 1.4912351e-38
0.40203333 -0.17558192 1.723 1.4727944e-38
0.39875144 -0.16245429 1.723 1.3810669e-38
0.40203333 -0.1690181 1.723 1.445458e-38
0.39875144 -0.15589046 1.723 1.4268415e-38
0.40203333 -0.14440382 1.723 1.4083663e-38
0.40203333 -0.13619906 1.723 1.3899628e-38
0.40203333 -0.12635335 1.723 1.353193e-38
0.40203333 -0.11978953 1.723 1.344046e-38
0.40531525 -0.10502096 1.723 1.3530845e-38
0.4069562 -0.093534291 1.723 1.3347173e-38
0.40531525 -0.085329525 1.723 1.2978402e-38
0.41238099 -0.1929943 1.7320001 1.5189997e-38
0.40743238 -0.18474668 1.7320001 1.5371528e-38
0.41073146 -0.1863962 1.7320001 1.5189284e-38
0.40743241 -0.17649905 1.7320001 1.4820498e-38
0.41073146 -0.1797981 1.7320001 1.5004169e-38
0.40545297 -0.16396269 1.7320002 1.4452796e-38
0.40578288 -0.15340573 1.7320002 1.4543925e-38
0.40743241 -0.14350858 1.7320001 1.4175493e-38
0.41073149 -0.14350858 1.7320001 1.4265532e-38
0.40743241 -0.13361144 1.7320001 1.3990743e-38
0.41073149 -0.13361144 1.7320001 1.4174769e-38
0.40743241 -0.12371429 1.7320001 1.3715958e-38
0.41073146 -0.12371429 1.7320001 1.3900701e-38
0.40743238 -0.11546668 1.7320001 1.3715233e-38
0.41238099 -0.11381716 1.7320002 1.3898895e-38
0.41361815 -0.10350762 1.7320002 1.3531557e-38
0.41497311 -0.094494157 1.7320004 1.3439716e-38
0.41403052 -0.085775249 1.7320002 1.2795806e-38
0.42062861 -0.085775241 1.7320001 1.3255708e-38
0.41839272 -0.19178638 1.7410001 1.5005607e-38
0.42281431 -0.19399714 1.7410001 1.4915934e-38
0.41618195 -0.18404858 1.7410001 1.5005254e-38
0.4141922 -0.17410001 1.7410001 1.4452803e-38
0.40954953 -0.16580953 1.7410001 1.4544992e-38
0.4128657 -0.16746762 1.7410001 1.4360969e-38
0.41369474 -0.15337382 1.7410001 1.436098e-38
0.41750842 -0.14359105 1.7410001 1.4360596e-38
0.41784006 -0.13430575 1.7410001 1.4266962e-38
0.41618192 -0.12435715 1.7410002 1.3899978e-38
0.41949815 -0.11440857 1.7410001 1.3990719e-38
0.42281431 -0.11109238 1.7410001 1.4083644e-38
0.41949812 -0.10777619 1.7410001 1.3715228e-38
0.42281431 -0.10446 1.7410001 1.3532285e-38
0.42281431 -0.094511434 1.7410001 1.3256771e-38
0.42666668 -0.19166668 1.7500001 1.4823386e-38
0.4316667 -0.19166668 1.7500001 1.4548234e-38
0.42497811 -0.18623753 1.7554001 1.5005255e-38
0.43053621 -0.18762669 1.7590001 1.5188929e-38
0.41833335 -0.17500001 1.7500001 1.4362054e-38
0.42413074 -0.17650835 1.7567501 1.4637918e-38
0.41611117 -0.16277778 1.7500002 1.4360613e-38
0.42160159 -0.16584858 1.7590002 1.4268766e-38
0.41833335 -0.15666668 1.7500001 1.4269488e-38
0.42442334 -0.1554043 1.7545002 1.3902129e-38
0.42416668 -0.14583334 1.7500001 1.408653e-38
0.43165302 -0.14351207 1.7590002 1.4178374e-38
0.42500004 -0.13500002 1.7500002 1.3717389e-38
0.43053621 -0.13736954 1.7590001 1.417729e-38
0.42525953 -0.12532572 1.7545002 1.390034e-38
0.43053621 -0.12396762 1.7590001 1.4084377e-38
0.42500001 -0.11666667 1.7500001 1.4082923e-38
0.43053621 -0.11559144 1.7590002 1.4084371e-38
0.42833337 -0.10166667 1.7500001 1.3532311e-38
0.43165302 -0.10554001 1.7590002 1.3715963e-38
0.42833337 -0.095000006 1.7500001 1.3532292e-38
0.43276986 -0.095488571 1.7590002 1.3715956e-38
0.42833337 -0.088333338 1.7500001 1.3531218e-38
0.43388668 -0.088787623 1.7590001 1.3806003e-38
0.43273908 -0.18185145 1.7680001 1.4730101e-38
0.42852956 -0.17259048 1.7680001 1.4637904e-38
0.42824894 -0.16557461 1.7680001 1.4453152e-38
0.43358099 -0.15575239 1.7680001 1.4360603e-38
0.43498415 -0.14873652 1.7680001 1.4178011e-38
0.43526477 -0.13554668 1.7680001 1.454355e-38
0.43610668 -0.12695925 1.768 1.4359883e-38
0.4369486 -0.11534096 1.7680001 1.4083655e-38
0.43812728 -0.10675353 1.768 1.3807418e-38
0.43835181 -0.09597715 1.7680001 1.371667e-38
-1.0136534 0.13470477 1.7680001 1.7231651e-38
0.43832669 -0.19123906 1.7770001 1.5097457e-38
0.43832669 -0.18446955 1.7770002 1.5005615e-38
0.43494195 -0.17431524 1.7770002 1.4821576e-38
0.4366343 -0.16416095 1.7770001 1.4911976e-38
0.43832669 -0.15739143 1.7770001 1.4819069e-38
0.44171146 -0.15400666 1.7770001 1.4543204e-38
0.44171149 -0.1438524 1.7770002 1.4268762e-38
0.44171149 -0.13369811 1.7770002 1.4636092e-38
0.44374233 -0.12286686 1.7770001 1.445243e-38
0.443968 -0.11338954 1.7770002 1.4084012e-38
0.44678861 -0.10492763 1.7770001 1.3624833e-38
0.44509622 -0.095788769 1.7770001 1.371631e-38
0.44374228 -0.086988382 1.7770001 1.3623041e-38
-1.0205057 0.13031334 1.7770001 2.2131976e-38
-1.017121 0.13031334 1.7770001 2.0827587e-38
0.44139719 -0.17434762 1.7860001 1.482122e-38
0.44224763 -0.16499239 1.7860001 1.4911981e-38
0.4439486 -0.15478668 1.7860001 1.4543921e-38
0.44735053 -0.14117905 1.7860001 1.4177281e-38
0.44735056 -0.13437524 1.7860001 1.4452788e-38
0.45075244 -0.12416953 1.7860001 1.4269831e-38
0.44735053 -0.11736572 1.7860001 1.4451724e-38
0.45075244 -0.11396381 1.7860001 1.3992531e-38
0.45075241 -0.1003562 1.7860001 1.3807787e-38
0.45245335 -0.092701912 1.7860001 1.3807788e-38
0.45245335 -0.085047625 1.7860001 1.3715597e-38
-1.0290762 0.12757143 1.7860001 2.341769e-38
-1.0290762 0.13097334 1.7860001 2.3417682e-38
0.44789526 -0.1931762 1.7950001 1.5189289e-38
0.44618577 -0.18633811 1.7950001 1.500598e-38
0.44823718 -0.17676477 1.7950001 1.4821932e-38
0.44823718 -0.16650763 1.7950001 1.4820147e-38
0.45302382 -0.16582382 1.7950001 1.4728668e-38
0.44960481 -0.15556668 1.7950001 1.4543565e-38
0.44960478 -0.14701906 1.7950001 1.4360601e-38
0.45302382 -0.14360002 1.7950001 1.4269121e-38
0.45387858 -0.13419762 1.7950001 1.4360965e-38
0.45644289 -0.12479524 1.7950001 1.3994333e-38
0.45644289 -0.1145381 1.7950001 1.3809575e-38
0.45644289 -0.10428096 1.7950001 1.3624476e-38
0.45644286 -0.097442858 1.7950001 1.3899622e-38
-1.0411 0.046157144 1.7950001 2.341769e-38
-1.037681 0.042738095 1.7950001 2.341769e-38
-1.0132593 0.045180272 1.7950002 5.7053545e-39
-1.0069095 0.044447623 1.7950001 6.8156425e-39
-1.0445192 0.056414288 1.7950001 2.341769e-38
-1.0012112 0.054134928 1.7950001 5.5209996e-39
-1.0445191 0.06496191 1.7950001 2.341769e-38
-1.001781 0.06496191 1.7950001 5.4298872e-39
-1.0445192 0.073509529 1.7950001 2.341769e-38
-1.001781 0.071800001 1.7950001 5.3398356e-39
-1.0431514 0.083766669 1.7950001 2.341769e-38
-1.037681 0.08034762 1.7950001 2.341769e-38
-1.0431514 0.093340002 1.7950001 2.341769e-38
-1.0436643 0.1034262 1.7950001 2.341769e-38
-1.0428095 0.1145381 1.7950001 2.341769e-38
-1.037681 0.1145381 1.7950001 2.341769e-38
-1.0428095 0.12479525 1.7950001 2.341769e-38
-1.0354016 0.12479525 1.7950001 2.3234019e-38
-1.0274239 0.12821428 1.7950001 2.2131954e-38
-1.0411 0.13334286 1.7950001 2.1948322e-38
-1.0363134 0.1357362 1.7950001 1.9549818e-38
0.4541499 -0.191854 1.8040003 1.5188565e-38
0.45529526 -0.18383621 1.8040001 1.4914849e-38
0.45701337 -0.17352763 1.8040001 1.4547147e-38
0.45758605 -0.16436446 1.8040003 1.4636113e-38
0.46216765 -0.16665524 1.8040001 1.4729368e-38
0.45701337 -0.15634668 1.8040001 1.4543924e-38
0.45787239 -0.14689715 1.8040001 1.4453509e-38
0.46216768 -0.14603812 1.8040003 1.463646e-38
0.45873144 -0.13744763 1.8040001 1.4361324e-38
0.46331304 -0.13343874 1.8040003 1.4361701e-38
0.46354213 -0.12473374 1.8040001 1.4086533e-38
0.46216768 -0.11511239 1.8040003 1.4085798e-38
0.46216768 -0.10480382 1.8040003 1.4084372e-38
0.4630267 -0.094495244 1.8040001 1.3992178e-38
0.46422935 -0.082812198 1.8040001 1.3714879e-38
0.46732193 -0.077314295 1.8040001 1.389783e-38
-1.0428839 0.046388574 1.8040001 2.341769e-38
-1.0360115 0.044670478 1.8040001 2.341769e-38
-1.0262756 0.046388574 1.8040001 1.3916898e-38
-1.0153943 0.049824767 1.8040001 5.617814e-39
-1.0073767 0.048679374 1.8040003 5.52421e-39
-1.0446019 0.054979052 1.8040001 2.341769e-38
-1.0239848 0.053260956 1.8040001 1.0392249e-38
-1.0145352 0.054120004 1.8040001 6.2631651e-39
-1.008522 0.056697149 1.8040001 6.4468487e-39
-1.0446019 0.063569531 1.8040001 2.341769e-38
-1.0133326 0.064256765 1.8040001 6.4461523e-39
-1.008522 0.060133334 1.8040001 6.1692011e-39
-1.0446019 0.073878102 1.8040001 2.341769e-38
-1.0131035 0.071587309 1.8040003 6.2631876e-39
-1.0463201 0.084186666 1.8040001 2.341769e-38
-1.0377296 0.080750488 1.8040001 2.341769e-38
-1.0437429 0.095354296 1.8040001 2.341769e-38
-1.0394477 0.097931437 1.8040001 2.341769e-38
-1.0442584 0.10549106 1.8040001 2.341769e-38
-1.0377296 0.10136762 1.8040001 2.341769e-38
-1.0377297 0.11511239 1.8040001 2.341769e-38
-1.0360116 0.12370287 1.8040001 2.341769e-38
0.46472955 -0.19349335 1.8140001 1.528219e-38
0.47164005 -0.19349334 1.8140001 1.5374374e-38
0.46386576 -0.18571906 1.8140001 1.5006333e-38
0.46472955 -0.17448954 1.8140001 1.482194e-38
0.47682288 -0.17103429 1.8140001 1.5098153e-38
0.48373336 -0.17103429 1.8140001 1.5097815e-38
0.46645716 -0.16326001 1.8140001 1.4637901e-38
0.47336766 -0.16757905 1.8140001 1.4640057e-38
0.46680269 -0.15444915 1.8140001 1.4911979e-38
0.46818477 -0.14512001 1.8140001 1.4636822e-38
0.46645716 -0.13820952 1.8140001 1.4453162e-38
0.47279179 -0.13417843 1.8140001 1.4637193e-38
0.46818477 -0.12957142 1.8140001 1.4362048e-38
0.47164005 -0.1261162 1.8140001 1.4453875e-38
0.4681848 -0.11575048 1.8140001 1.4269477e-38
0.47164005 -0.11575048 1.8140001 1.4360963e-38
0.4681848 -0.10538477 1.8140001 1.454356e-38
0.47164005 -0.10538477 1.8140001 1.4451375e-38
0.46818477 -0.095019057 1.8140001 1.4175134e-38
0.47164005 -0.095019057 1.8140001 1.4083661e-38
0.46818477 -0.086380959 1.8140001 1.3807069e-38
0.47336766 -0.08465334 1.8140001 1.3716663e-38
-1.0210229 0.039735243 1.8140001 4.8846168e-39
-1.0175676 0.039735243 1.8140001 6.0806208e-39
-1.0417544 0.043190479 1.8140001 2.341769e-38
-1.0469372 0.053556196 1.8140001 2.341769e-38
-1.0336921 0.053556196 1.8140001 1.5957435e-38
-1.0244782 0.057011437 1.8140001 6.531497e-39
-1.0452096 0.063921914 1.8140001 2.341769e-38
-1.0313886 0.060466669 1.8140001 1.1875301e-38
-1.0244782 0.060466669 1.8140001 6.3471127e-39
-1.0438274 0.074287623 1.8140001 2.341769e-38
-1.0459007 0.086035438 1.8140001 2.341769e-38
-1.0336922 0.085805088 1.8140001 1.4086212e-38
-1.0262058 0.086380959 1.8140001 5.9786623e-39
-1.0452096 0.093291432 1.8140001 2.341769e-38
-1.0434821 0.10711238 1.8140001 2.341769e-38
-1.0382991 0.11575048 1.8140001 2.3417684e-38
0.47076574 -0.17892572 1.8240001 1.5281468e-38
0.47493488 -0.16363887 1.8240002 1.4455312e-38
0.48118863 -0.16850287 1.8240001 1.4822658e-38
0.47562978 -0.15530059 1.8240002 1.4821587e-38
0.47337148 -0.14331429 1.8240001 1.4544993e-38
0.47771433 -0.1250743 1.8240001 1.454499e-38
0.47771436 -0.11638857 1.8240001 1.4452795e-38
0.47771436 -0.10596572 1.8240001 1.4359533e-38
0.47771436 -0.09554287 1.8240001 1.3991821e-38
0.48118863 -0.093805715 1.8240001 1.3901776e-38
0.47771433 -0.088594295 1.8240001 1.3808862e-38
-1.0431544 0.039085716 1.8240001 2.1121444e-38
-1.0370743 0.03995429 1.8240001 1.381535e-38
-1.0474972 0.046902861 1.8240001 2.341769e-38
-1.0509714 0.052114286 1.8240001 2.341769e-38
-1.0454127 0.053851433 1.8240002 2.222275e-38
-1.0440229 0.064274289 1.8240002 2.1120002e-38
-1.0336001 0.066011429 1.8240002 8.0030383e-39
-1.0426332 0.075392008 1.8240002 1.9554488e-38
-1.0344685 0.077302858 1.8240001 8.6455519e-39
-1.0266515 0.078171432 1.8240001 5.7125389e-39
-1.0426331 0.086509727 1.8240002 1.9277901e-38
-1.0336001 0.08164572 1.8240001 7.3616234e-39
-1.0266515 0.08164572 1.8240001 5.7139851e-39
-1.0447178 0.09554287 1.8240002 2.0658665e-38
-1.0336 0.095542856 1.8240002 7.9061988e-39
-1.0422857 0.10596573 1.8240002 2.0014383e-38
-1.0422857 0.11465143 1.8240001 2.0843422e-38
-1.0428648 0.12565336 1.8240001 2.0932004e-38
-1.0405486 0.13028571 1.8240001 1.622682e-38
0.47483429 -0.19028287 1.8330001 1.5282533e-38
0.47308856 -0.18504572 1.8330001 1.5281824e-38
0.4742524 -0.17398953 1.8330001 1.5097796e-38
0.48007143 -0.15187715 1.8330001 1.4637541e-38
0.48007143 -0.14489429 1.8330001 1.4546069e-38
0.48216635 -0.13442001 1.8330001 1.4728671e-38
0.48356289 -0.11521715 1.8330001 1.4360956e-38
0.48356289 -0.10648857 1.8330001 1.4359527e-38
0.48356289 -0.099505715 1.8330001 1.4085447e-38
0.48356289 -0.087285712 1.8330001 1.3809223e-38
-1.0334628 -0.022694286 1.8330001 5.7953641e-39
-1.0328809 -0.014547619 1.8330001 6.1652354e-39
-1.0334629 -0.005237143 1.8330001 5.2494056e-39
-1.0340447 0.0029095239 1.8330001 4.3310436e-39
-1.0317171 0.015711429 1.8330001 4.0595266e-39
-1.0253164 0.015129523 1.8330001 5.252274e-39
-1.0317171 0.029677143 1.8330001 4.9753494e-39
-1.0421914 0.036660001 1.8330001 1.4547518e-38
-1.0352085 0.034914285 1.8330001 6.8974251e-39
-1.0247344 0.034914285 1.8330001 5.0668402e-39
-1.0369543 0.040151428 1.8330001 6.1609418e-39
-1.0491743 0.055862859 1.8330001 2.3417687e-38
-1.0491743 0.06459143 1.8330001 2.3417684e-38
-1.0468467 0.072738096 1.8330001 1.9077321e-38
-1.0359069 0.07366915 1.8330001 6.0712237e-39
-1.0491743 0.082048573 1.8330001 2.341768e-38
-1.0483015 0.096014284 1.8330001 2.1670281e-38
-1.0421914 0.10648857 1.8330001 1.0113925e-38
-1.0362061 0.10698735 1.8330002 6.5307823e-39
-1.0439372 0.11521715 1.8330001 1.5393121e-38
-1.0387 0.11347143 1.8330001 9.2757747e-39
-1.0445192 0.12278192 1.8330001 1.4472986e-38
-1.0369543 0.12743714 1.8330001 4.8791769e-39
-1.0369543 0.13092858 1.8330001 9.4788621e-39
0.47918004 -0.18430001 1.8430002 1.5465845e-38
0.4856995 -0.18329702 1.8430002 1.5466214e-38
0.49322191 -0.18254477 1.8430001 1.519108e-38
0.47918001 -0.17727906 1.8430001 1.528182e-38
0.48707858 -0.17552382 1.8430001 1.5189633e-38
0.49322191 -0.17376858 1.8430001 1.509854e-38
0.48620096 -0.16499239 1.8430001 1.4730821e-38
0.48620099 -0.15621619 1.8430002 1.4821922e-38
0.48707858 -0.14480714 1.8430001 1.4729027e-38
0.48971143 -0.13690858 1.8430001 1.4728311e-38
0.49322191 -0.13515334 1.8430001 1.4728304e-38
0.48620099 -0.12462191 1.8430002 1.4544986e-38
0.48971143 -0.11058 1.8430001 1.4727948e-38
0.48971146 -0.10355905 1.8430002 1.4176575e-38
0.48971143 -0.094782859 1.8430001 1.3901412e-38
0.49322191 -0.096538097 1.8430001 1.3993605e-38
-1.0548981 -0.033349525 1.8430002 4.7851554e-39
-1.0543131 -0.02691365 1.8430002 7.5488369e-39
-1.0450687 -0.026328573 1.8430001 5.4312325e-39
-1.0636743 -0.012286667 1.8430001 1.4185899e-38
-1.0543966 -0.01479415 1.8430002 1.4099065e-38
-1.0443667 -0.015797144 1.8430002 6.1641396e-39
-1.0636743 -0.0087761907 1.8430001 1.631035e-38
-1.0566534 -0.0052657146 1.8430002 2.074077e-38
-1.0452442 -0.0052657146 1.8430001 8.5489954e-39
-1.0541961 0.0031594287 1.8430001 2.1208215e-38
-1.0449518 0.0052657146 1.8430002 9.0114239e-39
-1.0355904 0.0070209526 1.8430001 5.2551565e-39
-1.0417339 0.016674761 1.8430001 4.4142765e-39
-1.0361756 0.016967302 1.8430002 5.2530279e-39
-1.0417339 0.02720619 1.8430001 4.691927e-39
-1.0333965 0.025889764 1.8430002 6.3528693e-39
-1.0268143 0.028083809 1.8430001 4.3257243e-39
-1.0513877 0.033349525 1.8430001 1.8917751e-38
-1.0434891 0.034227144 1.8430001 7.6375096e-39
-1.0373458 0.036860004 1.8430001 4.6148458e-39
-1.0338353 0.10706954 1.8430002 6.3575636e-39
-1.0434891 0.11672334 1.8430001 8.0077173e-39
-1.0333965 0.1145293 1.8430002 7.0014799e-39
-1.0268143 0.11584572 1.8430001 6.8117637e-39
-1.0443667 0.12345175 1.8430002 7.7246746e-39
-1.0338353 0.1246219 1.8430002 5.8051017e-39
-1.0268143 0.12286667 1.8430001 5.1576514e-39
-1.0478771 0.13164286 1.8430001 1.0377941e-38
0.49236858 -0.16412286 1.853 1.5098519e-38
0.49236858 -0.15353429 1.853 1.4821916e-38
0.49413335 -0.14471048 1.853 1.4821935e-38
0.49413335 -0.13588667 1.853 1.4636469e-38
0.49236858 -0.12529811 1.853 1.4544622e-38
0.49236858 -0.11647429 1.853 1.4453149e-38
0.4958981 -0.10059143 1.853 1.3993972e-38
0.49707457 -0.093532383 1.853 1.399325e-38
0.49707457 -0.085296832 1.853 1.4175845e-38
-1.0617986 -0.02529492 1.853 9.4842066e-39
-1.0535628 -0.022941906 1.853 5.7996464e-39
-1.0623868 -0.019412382 1.853 1.2344466e-38
-1.0535628 -0.019412382 1.853 6.1698793e-39
-1.0553277 -0.0061766668 1.853 1.2624669e-38
-1.0553277 0.0088238101 1.853 1.5947696e-38
-1.0528569 0.015176954 1.853 1.3168515e-38
-1.0323857 0.019412382 1.853 4.6073348e-39
-1.051798 0.024706665 1.853 1.2145379e-38
-1.0323857 0.022941906 1.853 4.5133441e-39
-1.0535628 0.030000953 1.853 1.4366719e-38
0.49857426 -0.16146 1.863 1.5283616e-38
0.50744569 -0.16146 1.863 1.5099229e-38
0.49857426 -0.15436286 1.8630002 1.4638964e-38
0.50567144 -0.15613714 1.863 1.4731524e-38
0.49857426 -0.14726572 1.863 1.4455663e-38
0.50212288 -0.14371714 1.8630002 1.4271634e-38
0.49857426 -0.13307144 1.863 1.491233e-38
0.49857426 -0.12952286 1.863 1.4636819e-38
0.49857426 -0.11355428 1.863 1.4269845e-38
0.49857426 -0.10645714 1.863 1.417802e-38
0.50212288 -0.10468286 1.8630002 1.3993622e-38
0.49857426 -0.092262849 1.863 1.399324e-38
0.50389719 -0.090488568 1.863 1.4176925e-38
0.49857426 -0.085165717 1.863 1.4084004e-38
0.50744575 -0.085165717 1.863 1.4083656e-38
-1.0627972 -0.0017742857 1.863 1.7151952e-38
-1.0344086 0.019517142 1.863 9.7447851e-39
-1.0344086 0.026614286 1.863 1.020828e-38
-1.0344086 0.030162858 1.863 9.9377915e-39
-0.97230864 0.12952286 1.863 2.0465321e-38
-1.0273114 0.13662 1.863 1.9461533e-38
-0.97230864 0.13484572 1.863 2.0474638e-38
-1.0273114 0.14016858 1.863 1.5566072e-38
0.50481814 -0.16691364 1.8730003 1.519e-38
0.50571001 -0.15429954 1.8730001 1.4547492e-38
0.51433182 -0.15459685 1.8730001 1.4639683e-38
0.52265626 -0.15519145 1.8730001 1.4640047e-38
0.50838578 -0.14448859 1.8730001 1.4454942e-38
0.5137372 -0.14627239 1.8730001 1.4730091e-38
0.50600731 -0.13497494 1.8730001 1.4729372e-38
0.50125051 -0.12486668 1.8730001 1.4269467e-38
0.50303429 -0.11594763 1.8730001 1.4086528e-38
0.50838578 -0.10524477 1.8730001 1.4176213e-38
0.50838578 -0.096325718 1.8730001 1.4361321e-38
0.51314259 -0.092163503 1.8730001 1.4359884e-38
0.51552099 -0.087406673 1.8730001 1.3992535e-38
-1.0114201 -0.030324765 1.8730001 1.4649749e-38
-1.0078524 -0.030324765 1.8730001 1.5846479e-38
-1.0078524 -0.026757143 1.8730001 1.5385182e-38
-1.0078524 -0.014270477 1.8730001 2.0093636e-38
-1.0060686 -0.0017838096 1.8730001 2.341769e-38
-1.0132039 0.0035676192 1.8730001 2.1389381e-38
-1.0060686 0.0035676192 1.8730001 2.24075e-38
-1.0649343 0.012486667 1.8730001 1.418985e-38
-1.0363934 0.019621905 1.8730001 1.4838156e-38
-1.0375826 0.024378732 1.8730001 1.4464332e-38
-1.0363934 0.030324765 1.8730001 1.5674007e-38
-1.0042847 0.057081908 1.8730001 2.2866677e-38
-1.0042847 0.06243334 1.8730001 2.24075e-38
-1.0292581 0.094541907 1.8730001 1.4104536e-38
-1.0042847 0.096325718 1.8730001 2.341768e-38
-1.0114201 0.10524477 1.8730001 2.2032265e-38
-1.0042849 0.10667181 1.8730001 2.1759988e-38
-1.0114201 0.11238001 1.8730001 2.2040158e-38
-1.0060686 0.11238001 1.8730001 2.2223829e-38
-1.0328257 0.13200191 1.8730001 1.6699652e-38
-1.0256906 0.13378572 1.8730001 1.6039201e-38
-0.9828791 0.13378572 1.8730001 1.9731703e-38
-1.0256906 0.14092097 1.8730001 1.5102221e-38
0.52186006 -0.15243334 1.8830001 1.4638975e-38
0.51648003 -0.14167334 1.8830001 1.4730092e-38
0.52275676 -0.14615668 1.8830001 1.4913047e-38
0.50751334 -0.13450001 1.8830001 1.5096357e-38
0.51513505 -0.13405168 1.8830003 1.4637898e-38
0.5075134 -0.12374001 1.8830001 1.3902858e-38
0.51423836 -0.12418834 1.8830003 1.4270208e-38
0.50751334 -0.11656668 1.8830001 1.3811384e-38
0.51289332 -0.11477334 1.8830001 1.4360961e-38
0.5146867 -0.10580667 1.8830001 1.4452432e-38
0.5170778 -0.097437784 1.8830001 1.4636464e-38
-1.0204067 -0.032280002 1.8830001 1.3547357e-38
-1.0150267 -0.034073338 1.8830001 1.5666117e-38
-1.0204067 -0.016140003 1.8830001 1.6129569e-38
-1.0156245 -0.018531114 1.8830001 2.0747594e-38
-1.00875 -0.016140001 1.8830001 2.0927343e-38
-1.0222001 -0.0017933334 1.8830001 1.557715e-38
-1.0150267 -0.0035866667 1.8830001 2.2679386e-38
-1.0096467 -0.0071733338 1.8830001 2.2212245e-38
-0.9988867 -0.0017933334 1.8830001 2.341769e-38
-1.0245912 0.0053800005 1.8830003 8.1183456e-39
-1.0150267 0.0089666676 1.8830001 1.8714316e-38
-1.0050353 0.0058923815 1.8830004 2.1389044e-38
-0.99888676 0.0053800005 1.8830001 2.2590086e-38
-1.036188 0.016857335 1.8830003 1.8356306e-38
-1.0235451 0.016140001 1.8830003 1.1890428e-38
-1.0150267 0.016140003 1.8830003 2.2124067e-38
-1.0096467 0.016140003 1.8830001 2.2767984e-38
-1.0365467 0.025106668 1.8830001 1.8905887e-38
-1.0232762 0.024748001 1.8830003 1.1156073e-38
-1.0156245 0.024508892 1.8830001 2.1297907e-38
-1.0096467 0.025106668 1.8830001 2.2491422e-38
-1.0347536 0.034073338 1.8830004 1.5483908e-38
-1.0239935 0.034073342 1.8830003 1.0234899e-38
-1.0150267 0.034073338 1.8830003 2.1203573e-38
-1.0096467 0.034073338 1.8830001 2.1572001e-38
-1.0342411 0.04483334 1.8830004 1.409882e-38
-1.0239935 0.04483334 1.8830003 1.1249746e-38
-1.0150267 0.04483334 1.8830003 2.1570183e-38
-1.0074947 0.046268005 1.8830003 2.2393473e-38
-0.9988867 0.048420005 1.8830001 2.2664317e-38
-1.0329602 0.055593334 1.8830003 1.3718172e-38
-1.0239935 0.055593338 1.8830003 1.1525273e-38
-1.0150267 0.055593338 1.8830003 2.1941135e-38
-1.0050353 0.055080958 1.8830004 2.2401749e-38
-0.9988867 0.05738667 1.8830001 2.3050348e-38
-1.0347536 0.066353336 1.8830003 1.4372523e-38
-1.0239935 0.066353336 1.8830003 1.0982472e-38
-1.0150267 0.066353336 1.8830003 2.1199974e-38
-1.0078533 0.066353336 1.8830001 2.2121558e-38
-0.9988867 0.062766671 1.8830001 2.2866677e-38
-0.96302009 0.062766671 1.8830001 2.341769e-38
-0.95943344 0.064560004 1.8830001 2.3417689e-38
-1.0329601 0.075320005 1.8830001 1.3710971e-38
-1.0239935 0.075320005 1.8830003 1.5860936e-38
-1.0150267 0.075320005 1.8830001 2.3417673e-38
-1.0096467 0.075320005 1.8830001 2.3417673e-38
-1.0329602 0.084286682 1.8830003 1.3714205e-38
-1.0239934 0.084286675 1.8830003 1.4204283e-38
-1.0150267 0.084286675 1.8830003 2.1020633e-38
-1.00875 0.085183337 1.8830001 2.092736e-38
-1.0320635 0.095943332 1.8830001 1.3880621e-38
-1.0239935 0.095046669 1.8830003 1.7981034e-38
-1.0150267 0.095046684 1.8830003 2.2586849e-38
-1.0051633 0.094150007 1.8830001 2.2402815e-38
-1.0329602 0.10401334 1.8830001 1.3807476e-38
-1.0239935 0.10580667 1.8830003 1.6693191e-38
-1.0132333 0.10401334 1.8830001 2.2774842e-38
-1.0024734 0.10401334 1.8830001 2.2866677e-38
-1.0232762 0.11513201 1.8830003 2.0652536e-38
-1.0150267 0.11656668 1.8830001 2.341769e-38
-1.0096467 0.11656668 1.8830001 2.341769e-38
-1.0311668 0.12553334 1.8830001 1.325462e-38
-1.0239935 0.12374001 1.8830003 1.8718968e-38
-1.0150267 0.12374002 1.8830003 2.240283e-38
-1.0096467 0.12374002 1.8830001 2.2495742e-38
-0.9809534 0.12553334 1.8830001 2.2683006e-38
-0.97736675 0.12553334 1.8830001 2.2591171e-38
-1.0329602 0.13450001 1.8830001 1.6500563e-38
-1.0229688 0.13450001 1.8830004 1.5207981e-38
-1.0150267 0.13450001 1.8830003 1.5752915e-38
-1.00875 0.13360335 1.8830001 1.7331757e-38
-0.97736675 0.13091335 1.8830001 2.0387119e-38
-1.0222001 0.14167334 1.8830001 1.3735038e-38
-1.0150267 0.14167334 1.8830001 1.327909e-38
-1.0096467 0.14167334 1.8830001 1.4102037e-38
0.52671236 -0.13889334 1.8940001 1.4820857e-38
-1.0245638 -0.052310478 1.8940001 7.549211e-39
-1.0245638 -0.045095243 1.8940001 1.2250849e-38
-1.0335829 -0.03427238 1.8940001 5.7958279e-39
-1.0263677 -0.036677461 1.8940001 1.3178279e-38
-1.0245638 -0.023449525 1.8940001 1.6314288e-38
-1.0353868 -0.014430476 1.8940001 7.7416836e-39
-1.0299752 -0.016234286 1.8940001 1.0026754e-38
-1.0119371 -0.012626667 1.8940001 1.8246142e-38
-1.0353868 -0.009019048 1.8940001 6.9115782e-39
-1.0119371 -0.0054114289 1.8940001 2.2491381e-38
-1.0068865 -0.0061329529 1.8940001 2.248851e-38
-0.99570286 -0.0018038095 1.8940001 2.341769e-38
-1.0353868 0.009019048 1.8940001 7.6563249e-39
-1.0011144 0.0054114289 1.8940001 2.258937e-38
-0.9953422 0.0068544769 1.8940001 2.2495378e-38
-1.0362886 0.016234286 1.8940001 7.9131801e-39
-1.0119371 0.016234286 1.8940001 2.2676875e-38
-1.0051727 0.015783332 1.8940001 2.2955976e-38
-0.99389905 0.014791238 1.8940001 2.3043147e-38
-1.0359881 0.025854602 1.8940001 6.9937307e-39
-1.0143423 0.025854602 1.8940001 2.221304e-38
-1.007127 0.024652064 1.8940001 2.2862716e-38
-1.0444057 0.03788 1.8940001 1.6620787e-38
-1.0371906 0.030664762 1.8940001 9.6433409e-39
-1.0119371 0.034272384 1.8940001 2.1573078e-38
-1.0074277 0.035174288 1.8940001 2.2126964e-38
-1.0407981 0.041487619 1.8940001 1.7975652e-38
-1.0119371 0.043291427 1.8940001 2.3140377e-38
-1.0065258 0.043291427 1.8940001 2.323365e-38
-0.97225332 0.04689905 1.8940001 2.3233659e-38
-0.96864569 0.04689905 1.8940001 2.3234018e-38
-1.0444057 0.057721905 1.8940001 1.6802299e-38
-1.0020163 0.055016194 1.8940001 2.2586497e-38
-0.99570286 0.055918097 1.8940001 2.28638e-38
-0.9740572 0.057721905 1.8940001 2.3234019e-38
-0.96864575 0.055918097 1.8940001 2.3142182e-38
-1.0047219 0.065297909 1.8940001 2.2680125e-38
-0.99389905 0.063133337 1.8940001 2.3325854e-38
-0.97345591 0.064335875 1.8940001 2.3417689e-38
-0.96864569 0.066740952 1.8940001 2.3417687e-38
-1.0444057 0.075759999 1.8940001 1.5140636e-38
-1.0119371 0.073956192 1.8940001 2.3137136e-38
-1.0047219 0.073956184 1.8940002 2.3230415e-38
-0.97586095 0.073956192 1.8940001 2.3417687e-38
-0.96323431 0.077563807 1.8940001 2.341769e-38
-1.0444057 0.082975239 1.8940001 1.5685206e-38
-1.0119371 0.082975239 1.8940001 2.24075e-38
-1.004722 0.084779061 1.8940002 2.1667072e-38
-0.99389905 0.081171431 1.8940001 2.341769e-38
-0.97766483 0.081171431 1.8940001 2.341769e-38
-0.96563935 0.083576515 1.8940001 2.2957435e-38
-1.0119371 0.097405717 1.8940001 2.3417682e-38
-1.0036912 0.095086537 1.8940002 2.2680124e-38
-0.99750674 0.091994286 1.8940001 2.2494655e-38
-1.0119371 0.10462095 1.8940001 2.2866677e-38
-1.0047219 0.10281714 1.8940001 2.341769e-38
-0.98307616 0.10642476 1.8940001 2.341769e-38
-0.97766483 0.10462095 1.8940001 2.3325854e-38
-1.0119371 0.11544381 1.8940001 2.2866677e-38
-1.0059245 0.11364 1.8940001 2.2313512e-38
-0.99149406 0.11604508 1.8940001 2.3325854e-38
-0.98451918 0.11436152 1.8940001 2.3325854e-38
-0.97802556 0.11364 1.8940001 2.3325854e-38
-1.0299752 0.12446286 1.8940001 1.9282921e-38
-1.0119371 0.12446287 1.8940001 2.2497536e-38
-1.0053232 0.1238616 1.8940001 2.2589733e-38
-0.99209529 0.12626666 1.8940001 2.2591171e-38
-0.98487997 0.12085524 1.8940001 2.341769e-38
-0.97766483 0.12446287 1.8940001 2.2866677e-38
-1.0119371 0.13708952 1.8940001 1.8255124e-38
-1.0052372 0.13528574 1.8940002 1.8440963e-38
-0.99750674 0.13528572 1.8940001 1.9083465e-38
-0.97766483 0.1316781 1.8940001 2.0650428e-38
-1.0119371 0.14250095 1.8940001 1.4833148e-38
-1.004722 0.14250097 1.8940001 1.5012892e-38
-0.99750674 0.14250095 1.8940001 1.5190476e-38
-1.0354134 -0.047146667 1.904 7.6370752e-39
-1.0426667 -0.032640003 1.904 7.7211587e-39
-1.0366223 -0.033244446 1.904 8.1031905e-39
-1.0426667 -0.0272 1.904 9.5733292e-39
-1.0354134 -0.026293334 1.904 9.3035414e-39
-1.02816 -0.0272 1.904 1.4465377e-38
-1.0136534 -0.012693333 1.904 1.8618872e-38
-1.0064 -0.0018133334 1.904 2.341769e-38
-0.99624532 0.0032639999 1.9040002 2.3142183e-38
-1.0039823 0.018737778 1.904 2.3417683e-38
-0.99334401 0.017045332 1.9040002 2.3323689e-38
-0.98826671 0.014506666 1.904 2.3228616e-38
-1.0100267 0.0272 1.904 2.2034039e-38
-1.0045867 0.025386667 1.904 2.2679766e-38
-0.99914664 0.025386667 1.904 2.2773044e-38
-1.0100267 0.032640003 1.904 2.1295781e-38
-1.0042241 0.033728 1.9040002 2.184895e-38
-0.99914664 0.030826665 1.904 2.1106374e-38
-1.0064 0.045333333 1.904 2.3324043e-38
-0.9810133 0.045333337 1.904 2.3325493e-38
-0.97738665 0.041706666 1.904 2.341769e-38
-1.0027733 0.058026668 1.904 2.3142183e-38
-0.99552006 0.058631115 1.904 2.3234019e-38
-0.98343122 0.056213334 1.904 2.3141465e-38
-0.97738665 0.052586667 1.904 2.2864523e-38
-1.0027733 0.065279998 1.904 2.3325129e-38
-0.99552006 0.064675555 1.904 2.3325849e-38
-0.98343122 0.065884441 1.904 2.3417687e-38
-1.0027733 0.074346676 1.904 2.3321893e-38
-0.99697065 0.075797334 1.9040002 2.3325846e-38
-0.98464006 0.076522671 1.9040002 2.3417687e-38
-0.97436446 0.074346669 1.9040002 2.341697e-38
-1.0027733 0.08522667 1.904 2.2493951e-38
-0.99552 0.084622227 1.9040002 2.2588658e-38
-0.98464012 0.085831106 1.9040002 2.2589733e-38
-0.97648001 0.086133331 1.904 2.2495027e-38
-1.0027733 0.097920001 1.904 2.3417686e-38
-0.99914664 0.096106671 1.904 2.3048906e-38
-0.9831894 0.096832 1.9040002 2.3233297e-38
-0.97376001 0.092480004 1.904 2.2771244e-38
-1.0064 0.10517333 1.904 2.3050348e-38
-0.99552 0.10517333 1.9040002 2.3234019e-38
-0.98826671 0.10336 1.904 2.341769e-38
-1.0100267 0.11786667 1.904 2.341769e-38
-1.0042241 0.11351468 1.9040002 2.2864883e-38
-0.99642664 0.11152001 1.904 2.2957078e-38
-1.0100267 0.12693334 1.904 2.2129836e-38
-1.0039823 0.12632889 1.904 2.2683006e-38
-0.99733329 0.12149333 1.904 2.341769e-38
-1.0100267 0.13600001 1.904 1.8447062e-38
-1.0045867 0.13600001 1.904 1.8904096e-38
-1.0341001 -0.012766668 1.9150001 1.7051559e-38
-1.0140381 -0.012766668 1.9150001 1.9080926e-38
-1.0341001 -0.0072952383 1.9150001 1.9632606e-38
-1.0122143 -0.0091190478 1.9150001 2.128135e-38
-0.9947058 0.0076600001 1.9150002 2.2772679e-38
-0.99032867 0.012766668 1.9150001 2.3141438e-38
-1.0012715 0.025533333 1.9150001 2.2866674e-38
-0.9947058 0.022980001 1.9150002 2.3142183e-38
-1.0122143 0.0383 1.9150001 2.341769e-38
-1.0030953 0.034652382 1.9150001 2.2315663e-38
-0.99397624 0.034652382 1.9150001 2.2495748e-38
-0.98668098 0.0383 1.9150001 2.3417689e-38
-1.0122143 0.04559524 1.9150001 2.3047819e-38
-1.006135 0.04559524 1.9150002 2.3231138e-38
-0.99178773 0.04486572 1.9150002 2.3325493e-38
-1.0024874 0.054106355 1.9150002 2.2772326e-38
-0.99397629 0.054106355 1.9150002 2.2864881e-38
-1.0012715 0.067480952 1.9150001 2.3417679e-38
-0.99488819 0.06474524 1.9150001 2.3417686e-38
-1.0012715 0.074776195 1.9150001 2.3417679e-38
-0.99488807 0.072040483 1.9150001 2.3416604e-38
-0.98668098 0.071128577 1.9150001 2.3416608e-38
-1.0012715 0.089366674 1.9150001 2.1566625e-38
-0.99580002 0.089366674 1.9150001 2.1940424e-38
-1.0012715 0.094838098 1.9150001 2.2957428e-38
-0.99580002 0.094838098 1.9150001 2.3048546e-38
-0.98424929 0.09423016 1.9150002 2.2864515e-38
-1.0158619 0.10760477 1.9150001 2.24075e-38
-1.006135 0.10395715 1.9150002 2.3325854e-38
-0.99580002 0.10030953 1.9150001 2.341769e-38
-1.0085666 0.12219524 1.9150001 2.341769e-38
-1.0505 -0.73700005 1.9250001 4.8846294e-39
-1.0468334 -0.73700005 1.9250001 9.8509923e-39
-1.0456113 -0.0079444442 1.9250001 1.1964645e-38
-0.99476671 0.026033336 1.9250001 2.2866677e-38
-1.0040556 0.03727778 1.9250001 2.3050348e-38
-0.99550003 0.032388892 1.9250001 2.203621e-38
-1.0126113 0.045833334 1.9250001 2.3232934e-38
-1.0046668 0.045833342 1.9250001 2.3232578e-38
-0.99916667 0.049500003 1.9250001 2.3047111e-38
-1.0028334 0.053166665 1.9250001 2.2771249e-38
-0.99916667 0.056833334 1.9250001 2.3050348e-38
-1.0065 0.071500003 1.9250001 2.3407983e-38
-1.0528153 -0.75043046 1.9360001 9.5783472e-39
-1.0528153 -0.74674284 1.9360001 9.7602218e-39
-1.0491277 -0.74305528 1.9360001 1.4843547e-38
-1.0491277 -0.73936766 1.9360001 1.4937539e-38
-1.0625058 -0.76396579 1.9470001 5.1522353e-39
-1.0587972 -0.76211149 1.9470001 9.9349216e-39
-1.0563248 -0.75469434 1.9470003 1.2901699e-38
-1.0629144 -0.78133529 1.9580001 9.855653e-39
-1.05732 -0.78133529 1.9580001 1.3208854e-38
-1.0629144 -0.77387625 1.9580001 1.0866572e-38
-1.0560769 -0.77511942 1.9580001 1.411248e-38
-1.0610496 -0.76455235 1.9580001 1.4564803e-38
-1.05732 -0.76455235 1.9580001 1.477438e-38
-1.05732 -0.75522864 1.9580001 1.439844e-38
-1.05732 -0.74776953 1.9580001 1.4588927e-38
-1.055009 -0.78422469 1.9690001 1.0953762e-38
-1.0463829 -0.7838496 1.9690001 1.4929233e-38
-1.0107534 -0.78197432 1.9690001 1.999715e-38
-1.070761 -0.77822387 1.9690001 8.6484918e-39
-1.0651352 -0.77822387 1.9690001 1.3282352e-38
-1.0557591 -0.77447337 1.9690001 1.1232856e-38
-1.0455792 -0.77393764 1.9690001 1.7149487e-38
-1.0122536 -0.7737233 1.9690001 2.0738613e-38
-1.0051277 -0.77447343 1.9690001 1.9906695e-38
-0.99622023 -0.77494216 1.969 1.9998546e-38
-0.98825055 -0.77822387 1.9690001 1.9539399e-38
-0.86260957 -0.77072287 1.9690001 2.341769e-38
-1.055009 -0.76472217 1.9690001 1.003608e-38
-1.0445075 -0.76603484 1.9690001 1.659126e-38
-1.0120035 -0.76572227 1.9690002 2.0011506e-38
-1.0051277 -0.7650972 1.9690001 1.9734195e-38
-0.9982518 -0.76447219 1.9690002 2.0563948e-38
-1.0565093 -0.75347072 1.9690001 1.261037e-38
-1.0445076 -0.75384569 1.9690001 2.1760652e-38
-1.0332563 -0.75197047 1.9690001 2.2499335e-38
-1.0557592 -0.7463448 1.9690001 1.170849e-38
-1.0332563 -0.74822003 1.9690001 2.1850717e-38
-0.84573239 -0.67696095 1.9690001 2.341769e-38
-1.0446858 -0.79011434 1.9800001 1.6773875e-38
-1.0390286 -0.79011434 1.9800001 1.7974582e-38
-1.0220572 -0.79011434 1.9800001 2.2864143e-38
-1.0145144 -0.79011434 1.9800001 2.3325842e-38
-1.0050858 -0.79011434 1.9800003 2.3417686e-38
-0.99565721 -0.79011434 1.9800001 2.341769e-38
-1.0446858 -0.78445715 1.9800001 1.860766e-38
-1.0365144 -0.78382868 1.9800003 1.8511569e-38
-1.0231886 -0.78408009 1.9800001 1.8333677e-38
-1.0126287 -0.78634286 1.9800001 1.9908909e-38
-1.0050858 -0.78634286 1.9800003 2.0106224e-38
-0.99377155 -0.7850858 1.9800003 2.1024576e-38
-1.0654286 -0.77125722 1.9800001 1.4845322e-38
-1.0437429 -0.77597153 1.9800001 2.065254e-38
-1.0352572 -0.77502859 1.9800001 2.1297895e-38
-1.0258286 -0.77502865 1.9800003 2.1301125e-38
-1.0013144 -0.77125722 1.9800001 2.2223829e-38
-0.99377161 -0.77502865 1.9800003 2.2676515e-38
-1.0635428 -0.76371437 1.9800001 1.2976622e-38
-1.0541143 -0.7646572 1.9800001 1.3825389e-38
-1.0446858 -0.76560009 1.9800001 1.787731e-38
-1.0352573 -0.76560009 1.9800003 1.814816e-38
-1.0239429 -0.76560009 1.9800003 1.8700982e-38
-1.0145144 -0.76371437 1.9800001 1.9796526e-38
-1.0050858 -0.76371443 1.9800003 1.980373e-38
-0.9962858 -0.76622868 1.9800003 2.230631e-38
-1.0541143 -0.75617141 1.9800001 1.5032223e-38
-1.0446858 -0.75617146 1.9800003 2.1668469e-38
-1.0346286 -0.75742865 1.9800003 2.2953092e-38
-1.0239429 -0.75768006 1.9800001 2.2670411e-38
-1.0148915 -0.75617146 1.9800001 2.2393842e-38
-1.0050858 -0.7580573 1.9800003 2.0829366e-38
-0.99754292 -0.75994289 1.9800001 2.0178639e-38
-0.98622859 -0.75994289 1.9800001 1.98124e-38
-1.0616572 -0.74297148 1.9800001 1.2159407e-38
-1.0550572 -0.74580002 1.9800001 1.3831135e-38
-1.0201715 -0.74862862 1.9800001 2.0191602e-38
-1.0164001 -0.74862862 1.9800001 1.9921843e-38
-0.98434293 -0.7467429 1.9800001 2.3417682e-38
-0.9108001 -0.72222859 1.9800001 2.341768e-38
-0.92777145 -0.70337147 1.9800001 2.341769e-38
-0.92739439 -0.69658297 1.9800001 2.2125886e-38
-0.9258858 -0.6845144 1.9800003 2.2588637e-38
-0.85297149 -0.68325722 1.9800003 2.341769e-38
-0.84668577 -0.68262863 1.9800001 2.3417673e-38
-0.8523429 -0.67508572 1.9800001 2.341769e-38
-0.84480011 -0.67508578 1.9800001 2.3417682e-38
-0.83914286 -0.67508578 1.9800001 2.3417679e-38
-0.8523429 -0.66754293 1.9800001 2.3234019e-38
-0.84668577 -0.66754293 1.9800001 2.2958513e-38
-0.72977149 -0.62228572 1.9800001 1.3256707e-38
-1.0415314 -0.79300576 1.9920001 1.8981888e-38
-1.03584 -0.79300576 1.9920001 2.0181153e-38
-0.99473524 -0.79237336 1.9920001 2.2591169e-38
-0.98841143 -0.79110861 1.9920001 2.2591171e-38
-1.0415314 -0.78731436 1.9920001 1.8786729e-38
-0.99220574 -0.7854172 1.9920001 2.1478349e-38
-0.98588192 -0.7860496 1.9920001 2.1660222e-38
-0.99372351 -0.77517259 1.9920002 2.3047827e-38
-0.98841143 -0.77972573 1.9920001 2.1568039e-38
-1.0301486 -0.76075435 1.9920001 2.2866676e-38
-1.0263543 -0.76075435 1.9920001 2.277484e-38
-1.0187658 -0.76075435 1.9920001 2.2315657e-38
-1.0035887 -0.76075435 1.9920001 2.1761714e-38
-0.99647427 -0.76454866 1.9920003 2.1201413e-38
-0.98841143 -0.76265144 1.9920001 2.0552805e-38
-1.0347017 -0.75544226 1.9920002 2.2029739e-38
-1.0130744 -0.75696003 1.9920001 2.341767e-38
-1.0054858 -0.75696003 1.9920001 2.3417645e-38
-0.99473524 -0.75569528 1.9920001 2.3417679e-38
-0.98651433 -0.75506288 1.9920001 2.3417675e-38
-0.97323436 -0.75506288 1.9920001 2.341767e-38
-0.99600005 -0.74937147 1.9920001 2.3415878e-38
-0.98461717 -0.74937147 1.9920001 2.3417676e-38
-0.97323436 -0.74747431 1.9920001 2.2498971e-38
-0.92390865 -0.71332574 1.9920003 2.2673273e-38
-0.91442287 -0.71332574 1.9920001 2.2763326e-38
-0.92390865 -0.70384008 1.9920003 2.2774842e-38
-0.91442287 -0.70763433 1.9920001 2.3050348e-38
-0.90493715 -0.70510483 1.9920001 2.3234019e-38
-0.92466748 -0.6947338 1.9920002 2.064572e-38
-0.8556115 -0.69245714 1.9920001 2.341769e-38
-0.84802294 -0.69245714 1.9920001 2.2958513e-38
-0.92580581 -0.68676579 1.9920001 2.3325839e-38
-0.84802294 -0.68676579 1.9920001 2.2767276e-38
-0.99234343 -0.79700321 2.003 2.2864872e-38
-0.98433143 -0.79547715 2.003 2.2773748e-38
-0.97383952 -0.79356956 2.003 2.3416947e-38
-0.96525526 -0.79166192 2.003 2.3417682e-38
-0.95571721 -0.79166192 2.003 2.341769e-38
-0.9423638 -0.79356956 2.003 2.3050348e-38
-0.93473333 -0.79547715 2.0030003 2.203261e-38
-0.92138004 -0.79547715 2.003 2.1937526e-38
-0.91756475 -0.79547715 2.003 2.1844595e-38
-0.90230381 -0.79356956 2.003 2.2672187e-38
-0.89658093 -0.79356956 2.003 2.2765107e-38
-0.9910081 -0.7830776 2.003 2.2031524e-38
