# .PCD v0.7 - Point Cloud Data file format
VERSION 0.7
FIELDS x y z rgba
SIZE 4 4 4 4
TYPE F F F U
COUNT 1 1 1 1
WIDTH 1123
HEIGHT 1
VIEWPOINT 0 0 0 1 0 0 0
POINTS 1123
DATA ascii
-0.13693167 0.10071833 0.67899996 9044247
-0.11249954 0.10215489 0.67887497 10093358
-0.1042081 0.10436452 0.67821437 10424115
-0.094911113 0.10485074 0.67622447 10752312
-0.084993519 0.10467561 0.67394531 10884149
-0.075046413 0.1048179 0.67189628 11079988
-0.065530486 0.10523041 0.67077214 11213109
-0.054172844 0.10589129 0.67123395 10818098
-0.045061901 0.10487835 0.67388123 10357815
-0.037001029 0.10373817 0.67811126 9635113
0.16781731 0.10325415 0.67852175 11045778
0.17506576 0.10525776 0.67430443 10783632
0.18172391 0.10764477 0.67055559 10651530
-0.09204223 0.11144222 0.67900002 10488873
-0.084967203 0.1135964 0.6779362 10950202
-0.074570276 0.11510977 0.67686003 11277629
-0.064911261 0.11527159 0.6758461 11278903
-0.055296093 0.11508533 0.67618877 10951494
-0.04542065 0.1133742 0.67778957 10093867
-0.038800001 0.11187333 0.67900002 9438250
0.16878001 0.11058 0.67900002 10981520
0.17595549 0.11424714 0.6774044 10653065
0.18436852 0.11525869 0.67288893 10521227
-0.070486665 0.12222001 0.67900008 10813991
-0.064786643 0.12280574 0.67890012 11014448
-0.056814291 0.1212962 0.67900002 10751520
0.17937477 0.12065953 0.67750001 10845578
0.18556336 0.1244268 0.67462069 10717066
0.19328515 0.12646508 0.67115158 10520449
0.18776311 0.13276882 0.67837501 10390662
0.19492795 0.13489175 0.67433935 10455176
0.20174374 0.13834754 0.67054552 10192515
0.19777882 0.14421266 0.67723536 10520455
0.20435807 0.14578903 0.67240828 10389125
0.21114266 0.14855373 0.67060006 10651519
0.19933984 0.15214525 0.67883337 10062746
0.20531489 0.15484078 0.67576206 10455172
0.21338546 0.15568979 0.67149997 10455171
0.20772819 0.16323884 0.67795461 10388866
0.2149394 0.16469625 0.67390931 10125953
0.22126493 0.16645603 0.67050004 10190458
0.21650322 0.17411061 0.67715377 10060420
0.2244599 0.17564683 0.67276675 9928838
0.23089239 0.17896858 0.67033339 9601933
0.21878889 0.18085113 0.67900008 9993354
0.22578768 0.18425368 0.67590392 10125699
0.23350298 0.18608467 0.67154998 9994624
0.22823578 0.19202879 0.67888886 9863286
0.23526689 0.19465336 0.67453456 9797500
0.24215476 0.19726427 0.6712777 9600387
-0.40125999 0.20529556 0.67241669 3882609
-0.39715442 0.20724449 0.67548472 3489384
-0.3876839 0.20793705 0.67889994 3423076
0.23753348 0.2036261 0.67820835 9994874
0.24471559 0.20536578 0.67363077 9468544
0.25109047 0.20801905 0.67000002 9928062
-0.40100151 0.21093905 0.6724 2698867
-0.39492741 0.214863 0.67607015 3489130
-0.38928288 0.2136886 0.67785716 3423851
0.23948225 0.21059778 0.67900008 10193293
0.24600945 0.21371388 0.6765117 9468536
0.25414968 0.2157692 0.67227095 9337980
0.26009241 0.21919332 0.671 9011577
-0.39374161 0.22501014 0.67438567 4805260
-0.38646919 0.22568263 0.67702138 3619695
-0.37804413 0.22974889 0.67700005 3421555
0.24896668 0.22115999 0.67900002 9005943
0.25523031 0.22460365 0.6753847 9402488
0.26202112 0.22616866 0.6711818 9467259
-0.39318073 0.23434676 0.67094868 14476017
-0.38525608 0.23477608 0.67443234 4016260
-0.37755501 0.23551843 0.67751616 3422319
0.25725031 0.23284495 0.67800009 9074809
0.26449537 0.23542933 0.6741612 9140341
0.27160084 0.23774734 0.67070001 9009788
-0.39128849 0.24411736 0.67041671 16645886
-0.38480818 0.24513111 0.67350578 9147582
-0.37656122 0.24527308 0.67722255 3554684
-0.36924669 0.24185333 0.67900002 3357296
0.26668039 0.24412888 0.67721629 9007989
0.27453378 0.2455453 0.67298281 9205106
0.28054923 0.24906985 0.67000002 9009776
-0.40068287 0.25498 0.671 9729965
-0.3954488 0.25437596 0.67025 10060729
-0.38367373 0.25413033 0.67067558 16317693
-0.37719437 0.25490639 0.67398357 7306674
-0.36666 0.25802001 0.67900008 4146814
0.26891404 0.25146073 0.67875004 9337454
0.27514571 0.25371611 0.67535424 9140341
0.28264263 0.25661972 0.67278123 8812404
-0.38090932 0.26410547 0.67144448 16449278
-0.37613168 0.2647779 0.67600006 9871307
-0.367026 0.26381728 0.67728579 4476297
0.27839407 0.26374742 0.6785239 9140598
0.2849552 0.26519591 0.67456716 8942710
0.29225081 0.26719239 0.67037499 9073268
-0.38037404 0.27441001 0.67125005 9208773
-0.37509614 0.27490073 0.67320502 9141190
-0.367376 0.27701145 0.67513639 15526902
0.28631496 0.27303627 0.67755884 9138027
0.29454961 0.27550787 0.67382699 8679548
0.30256456 0.27766946 0.67121047 8679292
-0.37323123 0.28423858 0.6714375 15395831
-0.36600444 0.28429121 0.67500025 15265017
-0.35825333 0.28065333 0.67900002 4739980
0.038144544 0.28710514 0.67884618 6438268
0.044477057 0.28772974 0.67863631 5458808
0.050860956 0.28907049 0.67600006 16711421
0.28906 0.28000668 0.67900002 9074805
0.29594299 0.28376687 0.67734903 8548723
0.30508766 0.2853418 0.67341912 8744564
0.31466341 0.2887153 0.67068756 8679033
0.32096192 0.28905714 0.67000002 9207411
-0.37246886 0.29493892 0.67190689 16711422
-0.36556682 0.29570177 0.67531991 16580094
-0.35433757 0.29709363 0.67881817 8621248
0.028545717 0.29774386 0.67900002 3223359
0.035218544 0.29498824 0.67832798 3419191
0.045063023 0.29506046 0.67760044 2629420
0.050989941 0.29496548 0.67771429 5006233
0.30669892 0.29408562 0.67750007 8678776
0.31472117 0.29485881 0.67309272 8679022
0.32342726 0.29605737 0.67086834 8154227
0.33180952 0.29926667 0.67000002 7495546
-0.37144285 0.30124289 0.67500001 16711422
-0.36580944 0.30228823 0.67655557 16711422
-0.35890001 0.30070001 0.67900002 16711422
0.027792381 0.3018451 0.67866665 3419193
0.034852982 0.30141848 0.67770851 3352378
0.04506667 0.30130288 0.67599994 2697004
0.05218048 0.30193287 0.6785 5653624
0.30897734 0.30199337 0.67900002 8024950
0.31521156 0.30302921 0.6779688 8417401
0.32479501 0.30261123 0.67346674 8481913
0.33397472 0.30218694 0.67025006 8480615
0.34227428 0.30207428 0.67000002 8943209
-0.12169715 -0.27022001 0.68700004 7234645
-0.13017145 -0.26228571 0.68000001 6905700
-0.12588367 -0.26505077 0.68490398 7102313
-0.11811429 -0.26313239 0.68900001 4990761
-0.13045858 -0.25182906 0.68150002 6906219
-0.12800579 -0.25496918 0.68587887 6971501
-0.13151509 -0.24426667 0.6822353 7036261
-0.12734534 -0.24515073 0.68572986 7036525
-0.082560956 -0.24047239 0.68800002 4800094
-0.076462768 -0.24096031 0.6827001 6579812
-0.13186072 -0.23436597 0.68204999 6445672
-0.12864716 -0.23504642 0.68630433 6445158
-0.081449047 -0.23888431 0.68783331 4864851
-0.074865013 -0.23623753 0.68493938 4997191
-0.068093494 -0.2314432 0.68200004 4798793
-0.1327675 -0.22728552 0.68186373 5525589
-0.12895226 -0.22797135 0.685 5065298
-0.070008576 -0.2296543 0.68700004 7760471
-0.064310558 -0.22555333 0.68463796 9402490
-0.057684891 -0.22394812 0.68122739 10258056
-0.062137786 -0.21749604 0.68773347 10784916
-0.055275414 -0.21491992 0.68356895 11047578
-0.048571434 -0.21280761 0.67999995 11179412
-0.053054228 -0.20515592 0.6854223 11112352
-0.046392553 -0.20358612 0.68125004 11441822
-0.051121641 -0.19775456 0.68736362 11178406
-0.0448297 -0.19524094 0.68415517 11179169
-0.038952645 -0.19287403 0.68063635 10915492
-0.042208474 -0.18577437 0.68710011 11376546
-0.036706951 -0.18434224 0.68320453 11310744
-0.040027618 -0.17914 0.68900001 11313323
-0.034142584 -0.17566428 0.68579596 11310492
-0.02768782 -0.17331812 0.68105268 11245979
-0.032454163 -0.16773036 0.68662506 11506594
-0.02554604 -0.16441759 0.68419611 11441310
-0.018808572 -0.16149239 0.68099999 10915486
-0.022976099 -0.15550248 0.68620008 11507611
-0.016701628 -0.15368432 0.68200004 11244189
-0.02102788 -0.14742684 0.68800008 11243928
-0.01476292 -0.14505067 0.68432146 11442072
-0.0092033334 -0.14335705 0.68049997 11245727
-0.012863735 -0.1360853 0.68764001 11375512
-0.0061493115 -0.13434535 0.68307406 11442072
0.00064761908 -0.13081905 0.68000001 10716297
-0.011155238 -0.12926953 0.68900001 11904699
-0.0038511108 -0.12583238 0.68571121 11442589
0.002503776 -0.12392393 0.6820358 11442329
-0.0014044899 -0.11838464 0.68785727 11442317
0.0049133492 -0.11488679 0.68422425 11376794
0.01183119 -0.11232357 0.68074995 11573406
0.0068596033 -0.10669855 0.68641669 11441307
0.013945625 -0.10444105 0.68234879 11572892
0.020076191 -0.10038095 0.68000001 10394014
0.0098428568 -0.096460007 0.68900007 11704207
0.015150495 -0.095286824 0.68531489 11506585
0.022403274 -0.093381047 0.68123341 11506841
0.017454633 -0.08834815 0.68809098 11441053
0.024812223 -0.08470007 0.6837213 11506843
0.031058945 -0.082510382 0.68099999 11706530
0.026989188 -0.075616904 0.68729407 11441815
0.033686839 -0.074272513 0.68331826 11375506
0.029528571 -0.068243816 0.68900001 10979993
0.035873096 -0.06552574 0.68543631 11441818
0.042900462 -0.063376427 0.68211997 11180443
0.038315434 -0.057627678 0.68813348 11573147
0.045099627 -0.054791115 0.68413329 11441562
0.051125202 -0.05242148 0.68109101 11309974
0.04743905 -0.046402659 0.68731582 11243930
0.053827405 -0.044639569 0.68333995 11309974
0.060228571 -0.040800001 0.68000001 11707563
0.055617146 -0.035931394 0.68650001 11442329
0.063076518 -0.033865474 0.68200004 11310228
0.058682766 -0.027637621 0.68769997 11310232
0.065184042 -0.024766076 0.68448395 11179663
0.072377913 -0.021308953 0.68220007 11441289
0.06677299 -0.016673867 0.68814808 11310744
0.074550055 -0.01461079 0.68440366 11113373
0.081155382 -0.01196381 0.6817143 11638169
0.076715909 -0.0061919452 0.68782854 11310233
0.084015742 -0.0046003694 0.68349993 11178647
0.090611972 -0.0023131974 0.68028575 10850203
0.079399049 0.0006561905 0.68900001 11501971
0.085870042 0.0045271623 0.68643993 11375514
0.092839226 0.0061007682 0.68197232 11309981
0.089045249 0.01262762 0.68875009 11311258
0.095481962 0.014813478 0.68505657 11179156
0.1024183 0.016358381 0.68150002 11244441
0.11883809 0.017809525 0.68000001 1116417
0.12172981 0.01770803 0.68142861 1839934
0.098194063 0.022229241 0.68764716 11244179
0.1051286 0.024947546 0.68438345 11310482
0.11519871 0.026388336 0.68124992 6376507
0.12133358 0.023554837 0.68205261 1313319
0.10745549 0.033377051 0.68836373 11376025
0.11501755 0.035021178 0.68524581 8151129
0.12168898 0.035019703 0.68556255 786704
-0.061025716 0.049214285 0.68900001 16386393
-0.054134328 0.047217708 0.68540752 16387172
-0.0452227 0.047968514 0.6837222 16587631
-0.034851048 0.048066854 0.68020004 16655728
-0.02419031 0.047005102 0.68447047 16264807
-0.014942549 0.046684794 0.68793553 10097458
0.10958381 0.040027618 0.68900001 12426136
0.11554658 0.043417897 0.68818921 8940123
0.12102028 0.043589797 0.68900007 3084561
-0.13583145 0.059713334 0.68900001 10422061
-0.11359294 0.059463952 0.68828577 12977477
-0.10729765 0.05824865 0.68581825 13568072
-0.094397306 0.056760799 0.68516672 14751578
-0.084197514 0.056783743 0.68538463 15929191
-0.074063763 0.055040907 0.68155003 16388955
-0.064961128 0.05330269 0.68336374 16518484
-0.054691039 0.051435798 0.68366671 16584295
-0.046328641 0.051244561 0.68235713 16650352
-0.020135241 0.050013337 0.68200004 11206939
-0.015973119 0.054539781 0.683375 8261672
0.12737827 0.05671373 0.68258828 8619403
0.13239196 0.057782862 0.68169236 11113614
-0.1731088 0.06716156 0.68364006 7211804
-0.16477747 0.065299474 0.685 8192525
-0.1557292 0.064202003 0.68490636 8979232
-0.14580898 0.063623555 0.68442321 9962289
-0.13560624 0.062192492 0.68344462 11011122
-0.12282638 0.063461237 0.68535298 10947370
-0.11582814 0.06283398 0.68313795 12060725
-0.10801714 0.061926097 0.68160003 14354507
-0.020105716 0.065943182 0.68099999 8064277
-0.016043916 0.06411016 0.68354273 8263209
-0.009800001 0.065333337 0.68600005 8000562
0.12810835 0.063895665 0.68524998 7765384
0.13372312 0.065648183 0.68350983 11309719
-0.17382096 0.07369905 0.67999995 6298416
-0.020954035 0.075101212 0.68333328 7998230
-0.016356241 0.075108886 0.68711114 8065826
0.12885772 0.071705721 0.68820012 6586768
0.13577469 0.074687839 0.68741989 11244691
0.14354181 0.076769911 0.68180656 10982545
-0.17192742 0.084344685 0.68000007 6363937
-0.1671446 0.087664068 0.67999995 8062756
-0.021942757 0.084669195 0.68258613 8456484
-0.017040666 0.084388927 0.68650007 8325665
0.13856952 0.081830472 0.68875003 11113611
0.14525676 0.084632769 0.68498176 11113115
0.15101178 0.086174771 0.68178576 11047055
-0.17008305 0.094090663 0.68320006 5578532
-0.16508321 0.095302433 0.68336535 7734810
-0.15497975 0.096565627 0.68229985 8585761
-0.14765784 0.096989669 0.68085712 8847649
-0.13017143 0.098438092 0.68000001 8520470
-0.12499048 0.097926803 0.68000007 7931160
-0.11851429 0.099085711 0.68000001 10685237
-0.023848429 0.095388934 0.68331915 8718113
-0.01846889 0.094533652 0.68850011 8391468
0.14800999 0.093699239 0.6875239 11048077
0.15414357 0.095403589 0.68294543 11046801
0.16141397 0.099182859 0.68066669 11048339
-0.16335686 0.10327787 0.68765229 7865122
-0.15481974 0.10517494 0.68589813 8716837
-0.14524645 0.10509106 0.68336177 8782365
-0.13455963 0.10505158 0.68185115 8978976
-0.12492403 0.10475893 0.68272704 7996438
-0.11566678 0.10595843 0.68090254 10225711
-0.10737694 0.10811736 0.68035722 10489396
-0.097790472 0.10944761 0.68000001 10093612
-0.033052299 0.10622713 0.68132359 9308451
-0.025219394 0.10457081 0.68624002 8783144
-0.019029524 0.10039714 0.68900001 8783909
0.15618302 0.10421316 0.68579072 10718862
0.16368325 0.10557842 0.68228573 10719125
-0.15297811 0.1110299 0.6882 8716827
-0.14428288 0.11289508 0.68658823 8782116
-0.13459755 0.1139085 0.68542558 9044765
-0.12508276 0.1140745 0.68580419 7734554
-0.11465468 0.1151373 0.68520433 9832494
-0.10500289 0.11524985 0.68412 10226226
-0.095574617 0.11565834 0.68223923 10555442
-0.085161895 0.11894603 0.67999995 10355765
-0.077714287 0.11948571 0.68000001 10683695
-0.051161904 0.11980952 0.68000001 10555691
-0.044568073 0.11828417 0.68009531 9962277
-0.034804028 0.11528561 0.68269235 9175839
-0.027285447 0.1146801 0.68734384 8651803
0.15874496 0.11181734 0.6882 11047056
0.16579401 0.11466099 0.68647164 10914704
0.17238934 0.11713799 0.68077779 10848136
-0.13058192 0.12073905 0.68900001 9372715
-0.12848209 0.12087029 0.68900007 9372963
-0.11237409 0.12233905 0.68840009 9765660
-0.1045173 0.1245237 0.68744707 9831203
-0.094818503 0.12465332 0.6852451 10093358
-0.084786616 0.12489306 0.68397999 10355749
-0.075016208 0.12539405 0.68232614 10683436
-0.064743519 0.12754317 0.68138462 10817585
-0.054314483 0.12587561 0.68119144 10882866
-0.045117259 0.12487384 0.68295908 10094379
-0.035676271 0.12443311 0.68620008 9372708
-0.028522857 0.12130715 0.68849999 8716812
0.16774248 0.12315571 0.68850011 10782862
0.17488764 0.12478023 0.68372411 10652560
0.18147473 0.12732878 0.68184626 10652818
-0.094504237 0.13078932 0.6885556 10027579
-0.084201291 0.13117284 0.68723541 10290467
-0.074428216 0.13470052 0.68672514 10618151
-0.065183967 0.13516472 0.6862039 10684717
-0.05484711 0.13516639 0.68560725 11015736
-0.045685694 0.13453244 0.68752271 10161706
-0.03792645 0.1316157 0.68753856 9503266
0.17713498 0.13439433 0.68720001 10586252
0.18401352 0.1356056 0.68254358 10585741
0.19178972 0.13914286 0.68080002 10519681
-0.072180949 0.14108096 0.68900001 10683947
-0.064587891 0.14126846 0.68900007 10618411
-0.055084769 0.14155567 0.68857157 10950963
-0.048558094 0.14108096 0.68900001 10621994
0.17870256 0.14151841 0.68900001 10850436
0.18572804 0.14421873 0.68595922 10586760
0.19298835 0.14549416 0.68216676 10782344
0.18818906 0.15212572 0.68850005 10455189
0.19479604 0.1547856 0.68439996 10519952
0.2007501 0.15824191 0.68040007 10455703
0.19757396 0.16252987 0.68785012 10454404
0.20351505 0.16597165 0.68304551 10388358
0.21047619 0.16902857 0.68000001 11307129
0.20607539 0.17436747 0.68508154 10127488
0.21227373 0.17592549 0.68161547 10127235
-0.39358059 0.18551561 0.68773162 16645629
-0.38905784 0.18725896 0.68750012 16711420
0.20781887 0.18219344 0.68836373 10190210
0.21484396 0.18491916 0.68441826 10255747
0.22189657 0.18728757 0.68140006 10125702
-0.39363047 0.19514672 0.68294007 7894438
-0.38568604 0.19580565 0.68540031 4538482
-0.37869239 0.1988508 0.68833339 3618658
0.21751943 0.19363135 0.68735719 10059905
0.22454934 0.19542234 0.68285435 10125184
0.23120816 0.19769035 0.68057144 9733255
-0.3945896 0.20410506 0.68106109 3620201
-0.38502216 0.20479012 0.68490684 3422564
-0.37630418 0.20629457 0.68742114 3290722
0.22582051 0.20455533 0.68646169 9863555
0.23373233 0.20593975 0.6824615 9730936
-0.39041397 0.21521334 0.68133342 3423084
-0.38520473 0.21531744 0.68317902 3291493
-0.37456444 0.21467681 0.6845274 3421542
-0.36618268 0.2158553 0.68674082 3486563
-0.34253144 0.21851142 0.68900001 3027287
0.22794785 0.21273917 0.68777788 9994110
0.23497993 0.21480298 0.68496621 9731196
0.2425734 0.21738517 0.68135303 9862524
-0.38329571 0.22479418 0.6824376 3487593
-0.3747803 0.22529815 0.68371868 3355500
-0.36657366 0.22293697 0.68647069 3225189
0.23796712 0.2232246 0.68815011 9665916
0.24481983 0.22515902 0.68426532 9403258
0.2509782 0.22762182 0.68127275 9335917
-0.37381345 0.23471947 0.68198067 3619191
-0.36653814 0.23562151 0.68376458 3422582
-0.35754383 0.23736732 0.68744457 2963812
0.24631913 0.23430838 0.68654066 9468279
0.25367191 0.23599134 0.68253493 9271160
-0.38274285 0.24220952 0.68000001 3685752
-0.37234652 0.24573159 0.68061912 3620468
-0.36565262 0.24506891 0.68464279 3291505
-0.35590973 0.245882 0.68400002 3291504
0.24851477 0.24097525 0.68849999 8878457
0.25561613 0.24418007 0.68517548 9009529
0.26309419 0.24670774 0.68154168 9468800
-0.37277105 0.25475401 0.68045956 4146044
-0.36589411 0.25531751 0.68455422 3752313
-0.35601401 0.25420129 0.68503129 3687542
-0.34836125 0.2504997 0.68200004 3751540
0.25787964 0.25153282 0.68792319 9074559
0.26539358 0.25520048 0.6847015 9140599
0.27263898 0.25812694 0.6814546 9269886
-0.37295663 0.26473227 0.67999995 3948419
-0.36435959 0.26317677 0.68422019 4082563
-0.35742268 0.26512897 0.68621743 4016771
-0.34883085 0.26483849 0.68900007 4278399
0.26777118 0.26439747 0.68722582 9467254
0.27394137 0.26568347 0.68292159 9074297
-0.36343241 0.27665982 0.68478262 4609430
-0.35551208 0.27590284 0.68437868 5133712
-0.34694576 0.27637807 0.68852395 5790866
0.26901278 0.27189925 0.68860006 8878207
0.27589083 0.27424049 0.685 8942715
0.2838245 0.2772409 0.6817407 8811389
-0.36318365 0.28455096 0.68271434 9348324
-0.3543466 0.28537619 0.68473905 6778022
-0.34608313 0.28468198 0.68823981 7106467
0.029271429 0.28946191 0.68300003 13274295
0.034028348 0.28756326 0.68176472 10921396
0.044469845 0.2864635 0.68000001 4201623
0.27753001 0.28261358 0.68850011 8941435
0.28503424 0.28468931 0.6846934 8876920
0.29263926 0.28724751 0.68115801 9137524
-0.3619467 0.29073334 0.68600005 10725112
-0.3532089 0.29401311 0.68233341 8358844
-0.34619725 0.29571468 0.68733329 7370417
-0.33716375 0.29558191 0.68816656 6317726
0.018573651 0.29915148 0.68833339 3288088
0.0252364 0.29632184 0.68421751 3155777
0.031799685 0.29139754 0.68144447 4003134
0.28816143 0.29277802 0.68629414 8549751
0.29530478 0.29470229 0.68354905 8679282
0.30325577 0.29720035 0.68162966 8744818
-0.36279622 0.30451044 0.68000001 16711422
-0.3551324 0.3042199 0.68268186 10858200
-0.34535354 0.30426693 0.68688917 6317991
-0.33791536 0.30462882 0.68806672 5528989
0.016384624 0.30381534 0.6863572 3353656
0.022441214 0.30240217 0.68218184 3158072
0.29803491 0.3034237 0.68777782 8547948
0.30426303 0.30470908 0.68337053 8548729
0.31409523 0.30567619 0.68000001 8153208
0.29987907 0.3103781 0.68900001 7955327
0.30119142 0.3103781 0.68900001 8352891
-0.1203443 -0.27093953 0.69050002 5131572
-0.11828572 -0.27074289 0.69000006 2561551
-0.12192644 -0.26409674 0.6901502 6774623
-0.11812598 -0.26370317 0.69081825 4337441
-0.12290197 -0.25538644 0.69140023 6905959
-0.11702407 -0.2555061 0.69478571 4272949
-0.1227171 -0.24458466 0.69410014 6839658
-0.1176737 -0.24674733 0.69704348 6115660
-0.093032286 -0.24346198 0.6969474 4736848
-0.087454766 -0.24156 0.69300002 4931674
-0.12364224 -0.23506732 0.69403577 5327958
-0.11821588 -0.23739153 0.69777775 5130056
-0.092668675 -0.2369943 0.69684207 3551020
-0.085314699 -0.23493133 0.69401741 4601917
-0.076712154 -0.23280607 0.69127595 5323590
-0.13001999 -0.22770001 0.69300002 3087151
-0.12725264 -0.2282204 0.69291675 3481645
-0.081847697 -0.22799329 0.69707149 8808567
-0.074267529 -0.22535025 0.6937018 9534334
-0.06821271 -0.22144803 0.69088894 10388872
-0.072982185 -0.21557678 0.69663346 10126219
-0.065997779 -0.21411765 0.69215578 10652044
-0.059361905 -0.21138099 0.69000006 11177378
-0.071129531 -0.20873524 0.69800001 10259086
-0.064607613 -0.20525534 0.6946184 10455958
-0.058258113 -0.20516498 0.69057906 11178911
-0.06215189 -0.19626857 0.69614816 10521490
-0.055365697 -0.19443001 0.69234014 10784405
-0.048300005 -0.19155717 0.69000006 11243931
-0.053321905 -0.1864697 0.6950323 11047056
-0.046817083 -0.18465848 0.69087517 11113627
-0.051162224 -0.17784858 0.69766665 10914971
-0.044888787 -0.17500561 0.69376123 11178903
-0.038187303 -0.17253652 0.69000006 11639195
-0.042584676 -0.16712953 0.69663632 11178395
-0.035684638 -0.16419294 0.69265234 11244445
-0.029571433 -0.1623143 0.69000006 10786199
-0.034177125 -0.15582401 0.69611377 11310488
-0.02804363 -0.15416257 0.69188893 11310232
-0.031984083 -0.14815035 0.69757146 11507597
-0.0255566 -0.14454839 0.69375938 11572380
-0.018400002 -0.14128572 0.69000006 11442070
-0.022879077 -0.13549459 0.69537145 11244954
-0.017012019 -0.13429038 0.69161785 11310743
-0.021479048 -0.12709875 0.69749999 11311007
-0.015253812 -0.12498254 0.69383353 11245468
-0.0080106929 -0.12307712 0.69040924 11310488
-0.013062444 -0.11697698 0.69634777 11244695
-0.0056986203 -0.11464363 0.69334489 11442325
0.0006571429 -0.11105715 0.69000006 11572130
-0.011300952 -0.10968572 0.69800001 11113096
-0.0044930647 -0.10529353 0.69552839 11376531
0.0036730878 -0.10346044 0.6913873 11442076
-0.0014235375 -0.098337278 0.69700009 11442065
0.0049622669 -0.095092826 0.69406903 11441557
0.011609524 -0.090466678 0.69000006 11310228
0.0076857856 -0.086524673 0.69629633 11507357
0.014577462 -0.084489897 0.69251138 11376283
0.02037143 -0.081485718 0.69000006 11573926
0.015847363 -0.075398915 0.69477093 11441568
0.022591591 -0.073876038 0.69096696 11311001
0.017540114 -0.067546502 0.69735295 11245206
0.02501341 -0.064804308 0.69354248 11441817
0.031643134 -0.062441222 0.69014293 11178650
0.027246013 -0.055574991 0.69591433 11506846
0.034195423 -0.05473024 0.69204468 11507101
0.040523812 -0.051038101 0.69000006 11439755
0.02957119 -0.048842143 0.69774997 11573661
0.035790671 -0.04584825 0.69543195 11506592
0.043533389 -0.043973092 0.69146687 11376024
0.038129967 -0.036699492 0.6967693 11374745
0.045025051 -0.035101455 0.6940546 11179162
0.052292902 -0.032092907 0.69027281 11375511
0.047456522 -0.027043991 0.69657695 11243670
0.054686498 -0.024533227 0.69218528 11244437
0.061114289 -0.02037143 0.69000006 12166004
0.056486771 -0.015931578 0.69568431 11178904
0.063261554 -0.013649853 0.69172424 11375253
0.058166664 -0.009639048 0.69800001 11177891
0.065492988 -0.0057364507 0.69494557 11113361
0.072536759 -0.0041044336 0.69089681 11178901
0.068371624 0.0019925712 0.69700003 11244430
0.075395629 0.0052379393 0.69380343 11179415
0.082287088 0.0077978238 0.69042879 10851483
0.077368416 0.013883572 0.69683337 11244438
0.084332779 0.015557469 0.69314015 11113364
0.090948269 0.018189844 0.69033337 11178652
0.085897297 0.024067217 0.69631118 11244183
0.094124563 0.025750682 0.69249046 11441304
0.10054287 0.028257146 0.69000006 11112848
-0.022823494 0.039220951 0.69800007 16658045
-0.015862858 0.03899619 0.69400001 16270467
0.089078099 0.031243809 0.69800001 11179424
0.095699906 0.034943398 0.69525009 11244443
0.10365774 0.035780706 0.69120616 11244949
-0.082430482 0.049857143 0.69800001 14883412
-0.074706428 0.04980357 0.69725001 15535969
-0.065515928 0.049205717 0.69685721 16126295
-0.043157943 0.046920162 0.69716668 16651880
-0.032770954 0.044973049 0.6965 16654183
-0.025232311 0.042673346 0.69321448 16655977
-0.016447619 0.041927226 0.69073707 15284058
0.097800069 0.042058274 0.69681251 11375006
0.10517498 0.044747572 0.69358361 11309718
0.1131217 0.047739014 0.69095463 10783627
0.12339617 0.045226634 0.69070852 984844
-0.16175984 0.058307242 0.69100004 7406106
-0.15464348 0.058207627 0.69495237 7930407
-0.14489999 0.057265092 0.69558632 8783149
-0.13715358 0.057384532 0.69362497 9635874
-0.12278123 0.057831842 0.69685721 10750242
-0.11534566 0.056122065 0.69472241 11929920
-0.10320298 0.056791652 0.69611114 13699660
-0.096770532 0.055493105 0.69454998 14291800
-0.085214712 0.053376038 0.69434494 15208794
-0.075325556 0.052210186 0.69243479 15929954
-0.066458195 0.051323332 0.69090003 16127068
-0.011917381 0.058266431 0.69525003 8395325
-0.0093066674 0.058499046 0.69800001 7545146
0.10726006 0.054041538 0.69653851 11310485
0.11498478 0.054853957 0.69389307 10387324
0.12344959 0.055066492 0.6940608 1774607
-0.17102191 0.062936664 0.69200003 7209501
-0.1658681 0.06226448 0.69110006 7537429
-0.15421267 0.060912803 0.69200009 8520993
-0.14544898 0.060748339 0.69208336 9437998
-0.13997145 0.061114289 0.69000006 10421038
-0.12497991 0.060832668 0.6943 8847902
-0.10234858 0.060088895 0.69333333 14683218
-0.099660002 0.060060002 0.69300002 15013974
-0.012682024 0.066385239 0.69187504 8065587
-0.0097325183 0.063783139 0.69457155 7739443
0.11648063 0.062977552 0.69648492 10651265
0.12384214 0.06470564 0.69661903 2890262
-0.012541667 0.071636908 0.69325006 8000057
-0.0099190474 0.072077781 0.69433343 8000046
0.12655142 0.073679052 0.69400001 4869971
0.13206705 0.078531049 0.6906001 10460051
-0.012986217 0.086334184 0.69478959 8326951
-0.0088016661 0.086689532 0.69749999 8066086
0.13465703 0.085487619 0.69305891 10063251
0.1413437 0.087811984 0.6902858 10651282
-0.0151952 0.095169127 0.69396168 8326431
0.13558912 0.09444885 0.69501954 9733767
0.14352828 0.09567415 0.6921398 10982289
-0.17163059 0.10708846 0.69512504 5384741
-0.16603711 0.10717975 0.69112515 7080992
-0.021528812 0.10863239 0.69025004 8390940
-0.017148502 0.10481199 0.69377786 8521499
0.13759863 0.1011527 0.69722223 11702407
0.14548562 0.10466892 0.69403863 10981772
0.15233652 0.10653996 0.69095004 10784918
-0.17063907 0.11239143 0.69500011 5385776
-0.16475688 0.11500371 0.69332582 6950949
-0.15538225 0.1155308 0.69093502 8651035
-0.1460527 0.117851 0.69044465 8847648
-0.13602859 0.11894286 0.69000006 8847897
-0.12222858 0.11894286 0.69000006 7341351
-0.022310842 0.11535607 0.69061553 8455964
-0.017324233 0.11467296 0.69481492 8522018
0.14790304 0.11349566 0.69641179 10784391
0.15472457 0.11522986 0.69325429 10850191
0.16156328 0.11725307 0.69000012 10716554
-0.16334713 0.12269887 0.69740009 7408930
-0.15437606 0.1247095 0.69581825 8585761
-0.144748 0.12475168 0.69348007 8716823
-0.13494226 0.12473536 0.69102055 8913438
-0.12490927 0.12494268 0.69184631 7930395
-0.11603145 0.12513582 0.69091684 9700387
-0.10715382 0.12917547 0.69025004 9896239
-0.032200005 0.12880002 0.69000006 9110046
-0.024708277 0.12512615 0.69254917 8586764
-0.017852519 0.12459785 0.69676203 8522009
0.15670401 0.12416898 0.69589996 10783881
0.16368884 0.12553659 0.69141042 10653324
0.17085716 0.12945715 0.69000006 10717318
-0.39206931 0.13822119 0.69774997 1444409
-0.38888574 0.13694096 0.69800001 2821950
-0.15184405 0.13124356 0.69775003 8585766
-0.14415653 0.13306142 0.69707167 8847643
-0.13489416 0.13449265 0.69520426 8913189
-0.12469194 0.13456386 0.69638205 8192547
-0.11461539 0.1345354 0.69615227 9634344
-0.10496782 0.13508101 0.69415915 9961759
-0.095074445 0.13603078 0.69260895 10028072
-0.085171193 0.13634104 0.69096977 10355497
-0.077422954 0.13815133 0.69010007 10487085
-0.0419055 0.13805059 0.69000012 9963054
-0.03426728 0.13585013 0.69233346 9175582
-0.025728023 0.13418368 0.69578731 8651297
-0.018834922 0.13184445 0.69800007 8587038
0.1588708 0.1316562 0.69700003 10587804
0.16543269 0.13459295 0.69459653 10718092
0.17300785 0.13606991 0.69106472 10783365
-0.39439777 0.14236251 0.69687504 3552084
-0.38290286 0.14292382 0.69800001 5722745
-0.13292892 0.1409044 0.69787502 8978983
-0.12712142 0.14237024 0.69768423 9110308
-0.11340755 0.14121003 0.69761544 9700393
-0.10488992 0.14421304 0.69723934 9896486
-0.095247969 0.14472188 0.69579583 10093347
-0.08491227 0.14492105 0.69480008 10224432
-0.075164028 0.14511146 0.6922729 10421809
-0.065176353 0.14598221 0.69059551 10618157
-0.055248637 0.14648794 0.69061923 11017023
-0.044521324 0.14495206 0.69159591 10161704
-0.035049263 0.14484984 0.69446933 9437979
-0.028309524 0.14263023 0.69737506 8913685
0.16763088 0.14262629 0.69708335 10586255
0.17489102 0.14494662 0.6938237 10783626
0.18225329 0.14777724 0.69050014 11047040
-0.39419451 0.15551853 0.69620365 6118781
-0.38470942 0.15665138 0.69777274 5854845
-0.37841573 0.15688381 0.69800001 3945828
-0.097720005 0.15123333 0.69800001 10093089
-0.082589455 0.15263245 0.69793749 10224165
-0.074748516 0.15367126 0.69654071 10421284
-0.064671338 0.15501507 0.69468778 10750771
-0.055071447 0.15555871 0.69538021 10752310
-0.045315519 0.15470475 0.69622409 10292264
-0.036586773 0.15246765 0.69715792 9699867
0.17740011 0.15390649 0.69603455 10783116
0.18472518 0.15558231 0.69274098 10652042
0.1912286 0.15968573 0.69000006 11046295
-0.40209621 0.16913049 0.6910001 459097
-0.39389303 0.16541034 0.69436938 7432073
-0.38528484 0.16550544 0.69738746 12957896
-0.37778029 0.16724628 0.69800001 16316925
-0.064481907 0.16020761 0.69800007 10750260
-0.053845715 0.16175875 0.69800007 10751284
-0.047190372 0.16136371 0.69788891 10622260
0.18683033 0.16409168 0.69592112 10652040
0.19393645 0.16599125 0.69135022 10520455
0.20042858 0.16888572 0.69000006 11045770
-0.40216976 0.17401206 0.69152176 13551316
-0.39531437 0.17541224 0.69222283 16580092
-0.38488206 0.17487803 0.69421947 16645630
-0.37770563 0.17528085 0.69787991 16645629
-0.36761335 0.17882095 0.69800001 16711422
0.18962699 0.17192858 0.69700003 10389127
0.19544148 0.17473985 0.69410539 10388615
0.20170221 0.17636223 0.69011128 10125959
-0.40140003 0.1817643 0.69150001 16711422
-0.39527598 0.18188697 0.69023091 16645886
-0.38440222 0.18463315 0.69314337 15593204
-0.3749218 0.1853461 0.69626105 8816054
-0.3678942 0.18601455 0.69783336 4934763
0.1976064 0.18250643 0.69627774 10257541
0.20439553 0.18604366 0.69343168 10323328
0.21148288 0.18869112 0.69033337 10387590
-0.38400212 0.19239981 0.6905002 4601981
-0.37474847 0.19486909 0.69195807 3487585
-0.36576501 0.19497284 0.69638109 3421528
0.20685214 0.19445802 0.69564104 10126212
0.21327926 0.19581565 0.69174302 10387838
-0.38837147 0.2083143 0.69000006 3225959
-0.37295443 0.20443369 0.6924895 3290470
-0.36670956 0.20539412 0.69553488 3224410
-0.35664478 0.20940001 0.69800001 3027537
0.20843619 0.20113429 0.69700003 9997737
0.21556054 0.20471832 0.69448173 10060163
0.22114649 0.20635518 0.69031262 9926773
-0.38837147 0.21094288 0.69000006 3094385
-0.37156135 0.21809316 0.69100004 3421274
-0.3651934 0.21460868 0.69489253 3093598
-0.3551296 0.21531714 0.69724214 3027039
-0.34832707 0.21874823 0.6954546 2568794
0.21804206 0.21343939 0.69688237 9797747
0.22408211 0.21584931 0.69359547 9732219
-0.36313453 0.22516784 0.69107425 3225184
-0.35571465 0.22428411 0.69274628 2962783
-0.3463009 0.22522138 0.69383335 2895712
0.22615549 0.22399263 0.69611377 9601156
0.23380786 0.22590554 0.69202411 9600385
-0.36403733 0.23547386 0.6908977 3028589
-0.3551181 0.23521969 0.69473141 2897507
-0.34492525 0.23503436 0.69706684 2895973
-0.33815804 0.23414424 0.69784999 2699876
0.22892833 0.2315869 0.69774997 9730952
0.23561862 0.23441437 0.69520849 9468543
0.24250112 0.23635444 0.69208348 9402995
-0.37050763 0.24152097 0.69100004 3290761
-0.36636847 0.24164684 0.6902858 3028335
-0.35422146 0.24452178 0.69424546 3094382
-0.34616649 0.24506785 0.69680494 3224422
-0.3381446 0.24149393 0.69700003 3289694
0.23885596 0.24433987 0.69787496 9403005
0.2448405 0.24533892 0.69498163 9402745
0.25139067 0.24770708 0.69100004 9730674
-0.35345098 0.25558645 0.69377142 3686517
-0.34492475 0.25490868 0.69303161 3620211
-0.33709541 0.2572611 0.69441676 3949173
-0.32839239 0.25992191 0.69800001 4408444
0.24615508 0.25397786 0.69618434 9337463
0.25430024 0.255878 0.69263816 9206393
0.26130882 0.25867978 0.69025004 8877435
-0.35303265 0.26443696 0.69075781 4015998
-0.34475237 0.26500446 0.69138485 4344961
-0.3353909 0.26504686 0.6946668 5066883
-0.32885125 0.26831183 0.69700003 5790602
0.24928571 0.26125142 0.69800001 8482166
0.25587806 0.26435715 0.69534898 9205882
0.26338363 0.26586503 0.69175774 9009016
-0.35288572 0.27008575 0.69000006 4737926
-0.34365883 0.27404472 0.69218045 5659023
-0.33512995 0.27586818 0.69526559 6580376
-0.32891423 0.27412343 0.69710541 6449818
0.25868812 0.27211478 0.6979 9403777
0.26502618 0.275121 0.69475865 9074555
0.27216956 0.2774297 0.69028586 9139580
-0.34245363 0.28468475 0.69016677 7631266
-0.33505067 0.28487179 0.69154841 7238309
-0.3265354 0.285319 0.69620001 6120599
0.26705873 0.28330666 0.69754553 8876418
0.27362379 0.28562605 0.69310653 8811386
0.28191432 0.28892386 0.69000006 8549751
-0.34537467 0.29384947 0.69052184 7633066
-0.33272484 0.294265 0.69097227 5922713
-0.32487059 0.29557967 0.69369507 5001866
0.017527463 0.29819608 0.69016671 4591947
0.022069935 0.29574263 0.6902858 7875957
0.27589774 0.29377609 0.69574368 8877176
0.28434372 0.29583064 0.6925959 8548974
-0.3331351 0.30530018 0.6909501 4937365
-0.32546732 0.30572674 0.69439465 4149390
-0.31388307 0.30661109 0.69764709 5922963
-0.30805427 0.30517334 0.69744444 10854343
0.0069613918 0.30739102 0.69423085 2827834
0.012958572 0.30378839 0.69021446 3090739
0.2791543 0.30129206 0.69733334 9073780
0.28527054 0.30423099 0.69486016 8745587
0.29398918 0.3061012 0.69175023 8745847
-0.32393897 0.31131303 0.69481826 4214926
-0.31670201 0.31165195 0.69733346 6844080
-0.3093257 0.31130856 0.69400001 16711422
0.0039761905 0.31088001 0.69600004 3616062
0.28828511 0.31133017 0.69800007 9007978
0.29351538 0.31211957 0.69450009 8351351
-0.11451203 -0.24362175 0.70625722 3616569
-0.1055714 -0.24379988 0.70578057 3287608
-0.09802942 -0.24407028 0.70076478 4406849
-0.12066668 -0.23266669 0.70000005 3355689
-0.11765341 -0.23541084 0.70135713 3814202
-0.1031552 -0.23787938 0.70694739 2890018
-0.095836475 -0.23472072 0.70392311 4665912
-0.087650664 -0.23066516 0.70040005 7034716
-0.092810564 -0.22576325 0.70614719 7232608
-0.08557038 -0.224159 0.70260423 8416113
-0.078794025 -0.22247104 0.70028579 9403268
-0.091588162 -0.21736479 0.70785719 7429222
-0.085061029 -0.21519782 0.70548165 8416115
-0.07786613 -0.21429135 0.70144451 9468799
-0.082110085 -0.20715703 0.70770597 8613752
-0.074888296 -0.20505847 0.70398283 9665672
-0.068607621 -0.20225653 0.70166671 10324889
-0.073526166 -0.19570015 0.70662516 9534080
-0.066226058 -0.19367202 0.70194113 10323341
-0.071142457 -0.18724042 0.70757145 9666177
-0.065021686 -0.18511455 0.70508951 10192271
-0.057160471 -0.18374218 0.70157588 10783383
-0.062488873 -0.17582464 0.707591 10126480
-0.055471163 -0.17464426 0.70320392 10718099
-0.048666667 -0.17000002 0.70000005 11440014
-0.060011428 -0.16857144 0.708 10193045
-0.053957183 -0.16552937 0.70577556 10652558
-0.045854677 -0.16370893 0.70113897 10849933
-0.052293267 -0.15783261 0.70649999 10390154
-0.044691492 -0.15498631 0.70332134 11046551
-0.038017087 -0.15273388 0.70031244 11310484
-0.042804368 -0.14618795 0.70683336 10849168
-0.035941299 -0.14454421 0.70273471 11309975
-0.030000001 -0.14200002 0.70000005 11179423
-0.041805714 -0.13890284 0.708 11180701
-0.034080725 -0.13565394 0.70568538 11178392
-0.027352294 -0.13401447 0.70200008 11572636
-0.031680003 -0.12685233 0.70773345 11046805
-0.025489502 -0.12450483 0.70365137 11244440
-0.022464544 -0.11561216 0.70484632 11178908
-0.016660262 -0.11396982 0.70116228 11244955
-0.021927934 -0.10828985 0.70722228 11376784
-0.014589168 -0.10493445 0.70391101 11376280
-0.0084000006 -0.10226667 0.70000005 11245465
-0.012578096 -0.09592396 0.70615166 11375513
-0.005057238 -0.094474889 0.70198005 11376543
0.00066666672 -0.091333345 0.70000005 11706019
-0.010375428 -0.087986864 0.70740002 11574942
-0.0044519044 -0.085035354 0.70607716 11376022
0.0034104225 -0.084366836 0.70122236 11507352
0.010000001 -0.080666669 0.70000005 11177612
-0.0021348412 -0.077178016 0.70775002 11179932
0.0047551515 -0.075104341 0.7033456 11442073
0.010754583 -0.074115299 0.7003125 11441561
0.0065192445 -0.065828614 0.70658624 11441821
0.013722689 -0.064208634 0.70282239 11441819
0.020666666 -0.061333336 0.70000005 11246242
0.015096658 -0.055211455 0.70585024 11310488
0.022661738 -0.053772006 0.70139283 11441299
0.017940281 -0.046691433 0.70694119 11310490
0.024796367 -0.044907235 0.70385718 11441819
0.031989299 -0.042666167 0.70064706 11637409
0.0264521 -0.036874395 0.7068519 11441047
0.033760305 -0.034327053 0.70292008 11506842
0.04066667 -0.031333335 0.70000005 11704199
0.028994286 -0.028994286 0.708 11574173
0.035799943 -0.025276445 0.70547926 11375772
0.043601595 -0.024189964 0.70086509 11244436
0.050000004 -0.020666666 0.70000005 12031888
0.037462901 -0.017077709 0.70704544 11244442
0.044930894 -0.014750496 0.70423216 11178645
0.051847734 -0.013602601 0.70073074 11244184
0.047158428 -0.0058231885 0.70695645 11112345
0.054835733 -0.0046111862 0.70334554 11309722
0.061426673 -0.002593016 0.70022225 11243928
0.049222857 0.00067428569 0.708 11836312
0.05611217 0.0038238564 0.70617086 11244185
0.064403541 0.005118228 0.70190716 11310485
0.070333339 0.007666667 0.70000005 11506577
0.058641665 0.010447857 0.70774996 11309472
0.06514813 0.014351268 0.70501858 11244953
0.072834633 0.015800398 0.70091671 11244697
0.068487301 0.023354445 0.70733333 11112858
0.075093128 0.024812689 0.70407158 11375766
0.082419135 0.027131358 0.70007688 11244442
-0.033754684 0.036996908 0.70641673 16133477
-0.024980521 0.03846797 0.70190924 16527734
-0.01684 0.038513575 0.70025003 16266609
0.076380469 0.032325011 0.70651859 11309978
0.084526338 0.035057474 0.7031036 11310745
0.090559244 0.036544383 0.70020002 11309464
-0.10428037 0.049111616 0.70640004 12257606
-0.093473494 0.047554765 0.70327789 13043274
-0.084622741 0.047396667 0.70368195 14091603
-0.074714132 0.046537567 0.70427775 15011922
-0.06515117 0.045748293 0.70451361 15666011
-0.054634869 0.043713104 0.70389301 15997021
-0.044924852 0.043536562 0.703394 16324709
-0.036265809 0.043422122 0.70219356 16587868
-0.027333334 0.04066667 0.70000005 16656486
0.08640974 0.044633932 0.70572984 11244437
0.0939257 0.045467578 0.70132577 11376025
0.10066667 0.048 0.70000005 12229012
-0.16171049 0.05816143 0.70599997 7406628
-0.1544712 0.055005223 0.70288241 7537434
-0.14578524 0.05379381 0.70500004 8127779
-0.13430507 0.055277366 0.70477277 8128802
-0.12523156 0.054990582 0.70262975 9308455
-0.11322546 0.05304718 0.70513344 11602744
-0.10566105 0.05278099 0.70276672 12585798
-0.095141619 0.051504515 0.70156538 13571405
-0.086395234 0.050535716 0.70050001 14489172
-0.075814292 0.050023817 0.70033336 15536997
-0.068666674 0.050000004 0.70000005 15865435
-0.012857144 0.05628572 0.70000011 8527405
-0.0086666672 0.056666669 0.70000005 6827315
0.088480011 0.050800953 0.70649999 11375264
0.095883787 0.054048926 0.70446944 11245464
0.1031142 0.056141485 0.70173544 11310998
0.098289393 0.062477961 0.70757157 10984605
0.10478855 0.064933091 0.70418543 11506584
0.11267023 0.066081449 0.70033342 11113106
0.12800001 0.068000004 0.70000005 1245455
0.10734958 0.072566308 0.70694447 11441308
0.11529743 0.074850634 0.70309681 11441809
0.12504838 0.075243101 0.70154905 3809053
0.13030954 0.076183178 0.70166671 1582415
-0.010000001 0.08866667 0.70000005 8261680
0.11581767 0.08423093 0.70658344 11440793
0.1250224 0.085335866 0.70610946 5651505
0.13123688 0.084947906 0.70450002 1515596
-0.011152746 0.095235296 0.70066667 8327459
-0.0070033167 0.095460095 0.70162964 7935530
0.11934857 0.091028571 0.708 11507335
0.12460079 0.091569051 0.70783341 6902081
0.13191791 0.09486419 0.70460004 2568513
-0.012115306 0.1052881 0.70128572 8326430
-0.0062637092 0.10375003 0.70615792 8066084
0.13551123 0.10587415 0.70253849 7892852
0.14158908 0.10780366 0.7001667 11440787
-0.012445109 0.11477982 0.70130324 8456489
-0.0083041266 0.11760857 0.70700002 8457778
0.13679503 0.11453084 0.70622236 8421512
0.14375378 0.11550076 0.70193195 10981003
-0.16409633 0.1271767 0.70060003 6754848
-0.15866667 0.12800001 0.70000005 8192558
-0.01279845 0.124993 0.70334291 8391451
-0.0087657142 0.12272 0.708 8588851
0.1382004 0.1214434 0.70785719 10392473
0.14500877 0.12483969 0.70458943 10981258
0.15195791 0.12573937 0.70047826 10915467
-0.39200002 0.13933334 0.70000005 1903182
-0.38583398 0.13809252 0.70203859 4471895
-0.37742859 0.13921553 0.70714289 5262439
-0.16323638 0.13487679 0.70414698 6426923
-0.15519588 0.13520233 0.70217079 8454694
-0.14597072 0.13808587 0.70145011 8782116
-0.12466668 0.13933334 0.70000005 8325392
-0.11933334 0.13866667 0.70000005 8260917
-0.021503689 0.13785823 0.70012498 8782114
-0.014803868 0.13505504 0.70386285 8390692
0.14683281 0.13391648 0.70711118 10980493
0.15460633 0.13528678 0.70332772 10849677
0.16159381 0.13847764 0.7001667 11243400
-0.39370966 0.14557083 0.70018941 4999012
-0.3846904 0.14489295 0.70249236 5591922
-0.37626383 0.14488892 0.70616019 5657715
-0.16187258 0.14369601 0.70692849 6230317
-0.15522785 0.14450809 0.70531249 8454690
-0.14520563 0.14496464 0.70363647 8978981
-0.13553882 0.14570148 0.70153487 9044522
-0.12376375 0.14554378 0.70044118 7799830
-0.11572702 0.14604852 0.70089483 9110821
-0.10770549 0.14838643 0.70025003 9700635
-0.02413079 0.14547142 0.70097518 8782872
-0.015922287 0.14455728 0.70565009 8520990
0.15686385 0.14432766 0.70550013 10784399
0.16381708 0.14572313 0.70222235 10850443
0.17044446 0.14822224 0.70000005 10519955
-0.39408576 0.1506485 0.70015383 5724269
-0.38530958 0.15339692 0.70091134 5525876
-0.37508279 0.15493447 0.70596319 8750253
-0.36911747 0.1584072 0.70711118 16580350
-0.15382653 0.15092282 0.70769233 8455207
-0.1446541 0.15348744 0.70736128 9044781
-0.13479371 0.15512043 0.70613056 9176104
-0.12489915 0.1551272 0.70509261 8585757
-0.11498316 0.1551058 0.70536011 8913693
-0.10515097 0.15471923 0.7024681 9896738
-0.094519652 0.15506075 0.70195752 9962534
-0.085733332 0.15594599 0.7008751 10158892
-0.075888894 0.15877779 0.69999999 10356523
-0.04066667 0.15933335 0.70000005 9896747
-0.033836532 0.15635386 0.70070606 9503517
-0.024917295 0.15487261 0.70420003 8848155
-0.018068571 0.1544162 0.70745456 8652315
0.15853196 0.15164329 0.7076667 11111298
0.16583094 0.15470105 0.70533347 10849419
0.17298773 0.15506124 0.70100003 10782864
-0.38333338 0.16066667 0.70000005 3610761
-0.37406439 0.16441199 0.7028513 16119799
-0.36789626 0.1661665 0.70719057 16711422
-0.13283429 0.16115429 0.708 9241637
-0.12609142 0.16166 0.70800006 9241615
-0.11257952 0.16179065 0.70783329 9634607
-0.10448293 0.16446981 0.707021 9962279
-0.094813682 0.16474833 0.70604104 9963293
-0.085390858 0.16474351 0.70448893 10094128
-0.075000875 0.16540702 0.70312476 10225709
-0.064931631 0.16540731 0.7012046 10619182
-0.055092126 0.1662142 0.70117497 10684983
-0.044283412 0.16571639 0.70132512 10621226
-0.034852203 0.16492845 0.70358157 9570084
-0.025125237 0.16459799 0.70641327 8061976
-0.018307446 0.16415127 0.70718175 7078150
0.16878065 0.16272318 0.70700002 10849167
0.17502658 0.16507606 0.70353341 10652555
0.18266791 0.16659278 0.70061904 10586253
-0.37310129 0.17456824 0.70070475 16711421
-0.36585915 0.17519955 0.70484626 15987960
-0.10249142 0.17059429 0.708 10158891
-0.093725726 0.17194287 0.70800006 9964077
-0.083986811 0.1726398 0.7075001 8980512
-0.07454513 0.17319015 0.70620823 8718367
-0.064995483 0.17287013 0.70353568 8653863
-0.0548127 0.17292434 0.70259976 8324640
-0.044835035 0.17264894 0.7026428 7473688
-0.035256669 0.17200506 0.70660001 6095376
-0.027982857 0.17093143 0.708 6029578
0.17664953 0.17328745 0.70672733 10717582
0.18477297 0.17506251 0.70324153 10520975
0.19050001 0.17683333 0.70000005 10126999
-0.38333336 0.18333335 0.70000005 16711422
-0.3718667 0.18093334 0.70000005 16251638
-0.36400595 0.18466528 0.70266157 3552357
-0.35707608 0.18621105 0.70653355 3552350
0.18619248 0.18395807 0.70594454 10519945
0.19409363 0.18583731 0.70265013 10322818
-0.36232856 0.19436026 0.70381474 3355740
-0.35610196 0.19574274 0.70482707 3289433
-0.34686956 0.19904509 0.70766664 2830165
0.18938509 0.19208157 0.70766664 10257548
0.19558361 0.1944169 0.70557159 10193022
0.20238541 0.19641082 0.70073915 10192264
-0.36243057 0.20401312 0.70195657 2962525
-0.35414064 0.20486318 0.70194215 2960987
-0.34634149 0.20413356 0.70739597 2763601
0.19758338 0.20147565 0.70700002 9799045
0.20516026 0.20508938 0.70424497 9995136
0.21080743 0.20680676 0.70022225 10257282
-0.36253333 0.21213333 0.70000005 2700885
-0.35212323 0.21229455 0.70125002 2894683
-0.34629127 0.21466875 0.70550019 2894682
-0.33871621 0.21599619 0.70800006 2893907
0.20789345 0.21432701 0.70644456 9928320
0.21376356 0.2152593 0.70172739 10060929
0.22066668 0.21933335 0.70000005 11240058
-0.35105479 0.22774714 0.70749998 3026023
-0.34478816 0.22480831 0.70559102 2829914
-0.33724687 0.22786091 0.70577794 2698840
0.20970288 0.22184001 0.70800006 9864576
0.21558884 0.2246533 0.70474559 10125954
0.22171429 0.2264268 0.70058823 9994625
-0.34066668 0.23333335 0.70000005 2830181
-0.33507004 0.23539618 0.70378017 2830433
0.21805897 0.23287188 0.70684618 9862016
0.2247126 0.23513967 0.70347184 9600379
0.23238492 0.23772924 0.70116663 9535622
-0.35590479 0.24695241 0.70000011 3487599
-0.34402552 0.24795839 0.70376188 3159396
-0.33533195 0.24479701 0.70428067 3093859
-0.32746446 0.24980667 0.70700002 3225700
0.2272629 0.2441716 0.7068519 9534593
0.23412438 0.24544735 0.70342231 9599100
-0.35533333 0.25000006 0.70000005 3553401
-0.34256265 0.25287414 0.70222235 3488614
-0.33573595 0.25507152 0.70223349 3489644
-0.32429287 0.25523472 0.70648783 3949425
0.22925714 0.25016001 0.708 9533822
0.23635161 0.25444359 0.70521176 9402495
0.24247384 0.25642145 0.70094454 9599347
-0.33242732 0.26491919 0.70188469 4935038
-0.32453936 0.26463699 0.70496786 5461372
-0.31899825 0.2674211 0.7072857 6381706
0.23841475 0.26176399 0.70716667 9208199
0.24480632 0.26481959 0.70367312 9206906
0.25136828 0.2666603 0.70038462 8876665
-0.33101431 0.27058575 0.70500004 5725066
-0.32409364 0.27376911 0.70253593 6645909
-0.31619495 0.2753506 0.70473671 6054027
0.24762435 0.27377719 0.70616001 9403515
0.25463921 0.27558908 0.70283031 9271158
0.26066667 0.27800006 0.70000005 9467258
-0.32251546 0.28447476 0.70257705 5725843
-0.31474638 0.28535682 0.7023809 4673416
-0.30887121 0.28277737 0.70275003 3885959
0.24881144 0.28117713 0.708 9861477
0.25577092 0.28448424 0.70595938 9139575
0.26330659 0.28614038 0.70115644 9008503
-0.33200741 0.29363674 0.70207703 5595538
-0.32476917 0.29289889 0.70113641 5002127
-0.31522956 0.29490578 0.70307571 4213124
-0.30480981 0.29646432 0.70705736 5197969
-0.29870859 0.29870859 0.708 8358877
0.2587963 0.29218638 0.70744449 9269885
0.26516455 0.29427525 0.70397872 8877172
0.27256659 0.2969093 0.70139134 8810616
-0.32186693 0.30316821 0.70106661 4147848
-0.31509805 0.30306271 0.70211917 4213387
-0.30487695 0.30459207 0.70644641 10200256
-0.2958889 0.30765817 0.70800012 3751806
0.002445397 0.30836925 0.70033336 3214396
0.26777962 0.30303788 0.70671433 8746355
0.27478275 0.30525437 0.70325869 8680056
0.28093302 0.30762732 0.70066667 8876919
-0.31000003 0.31066668 0.70000005 16711416
-0.3051402 0.31354195 0.70586503 7370160
-0.29483649 0.31233391 0.70657146 3355769
0.0013333334 0.31133339 0.70000005 3615811
0.27611405 0.31411335 0.70610017 8679540
0.28417072 0.31373808 0.70180005 9007475
0.29000002 0.31466669 0.70000005 7828077
-0.11269842 -0.2414 0.71000004 2365469
-0.10886667 -0.24004763 0.71000004 2167837
-0.11351743 -0.23672819 0.71481252 3152672
-0.10578318 -0.23399159 0.71308893 4731443
-0.099185526 -0.23233409 0.71040004 5916994
-0.11024668 -0.22802573 0.71900004 5520198
-0.10442017 -0.22515787 0.71593183 5719879
-0.097882397 -0.2243519 0.71170384 6443344
-0.10195078 -0.21698458 0.71843749 5982795
-0.095428988 -0.21437597 0.71391314 6640723
-0.088580951 -0.21097144 0.71000004 7626347
