# .PCD v0.7 - Point Cloud Data file format
VERSION 0.7
FIELDS x y z rgba
SIZE 4 4 4 4
TYPE F F F U
COUNT 1 1 1 1
WIDTH 1156
HEIGHT 1
VIEWPOINT 0 0 0 1 0 0 0
POINTS 1156
DATA ascii
0.50550854 -0.26578289 1.368 13284301
0.51459467 -0.2652584 1.3668463 14408686
0.52244568 -0.26708573 1.368 15655923
0.4426505 -0.25832096 1.363 14996195
0.45488966 -0.25164503 1.3630002 14864865
0.46497774 -0.25434014 1.3630003 14601181
0.47510287 -0.25442669 1.3630003 14469336
0.48548758 -0.25442666 1.3630003 14600925
0.49644056 -0.25471923 1.3645626 13085631
0.50590354 -0.25537419 1.3661819 11240361
0.51380563 -0.25586125 1.3665 12298180
0.43745813 -0.24144572 1.363 15458025
0.44481403 -0.24231112 1.3630002 14668773
0.45433334 -0.24404186 1.3630003 14602979
0.4647181 -0.24404189 1.3630003 13348555
0.47569293 -0.24510397 1.363 14206425
0.48548761 -0.24404188 1.3630003 13877720
0.49518225 -0.24434033 1.3646667 14536152
0.50495023 -0.24493718 1.3680001 10975361
0.51376003 -0.24537143 1.368 12308709
0.53286856 -0.24233145 1.368 13683942
0.43745813 -0.23495524 1.363 14206417
0.44427311 -0.23560429 1.363 12624327
0.45303521 -0.23560429 1.363 12558273
0.46342003 -0.23690239 1.363 13077946
0.4774394 -0.23443599 1.363 12363707
0.48548764 -0.23495525 1.3630002 11175852
0.49527594 -0.23478274 1.3635 12227771
0.50502187 -0.23566487 1.3657273 12427451
0.51608819 -0.23535071 1.3676153 14800619
0.52348799 -0.23269029 1.368 15590642
0.43745813 -0.22846477 1.363 13288123
0.44297501 -0.22716667 1.363 12552374
0.45147753 -0.22716668 1.363 13020096
0.47640097 -0.22392143 1.363 13943741
0.48548761 -0.22586858 1.3630003 13350854
0.49587238 -0.22586858 1.3630003 14602457
0.50495905 -0.22586858 1.3630002 14865125
0.51440203 -0.2253722 1.3639376 15260652
0.52374852 -0.22409144 1.368 15458033
0.53807998 -0.2214857 1.368 16050164
0.45303524 -0.21288763 1.3630002 15061728
0.47640097 -0.21591651 1.363 14667228
0.48548761 -0.21548381 1.3630003 14470106
0.49587244 -0.21548383 1.3630003 14601437
0.50495905 -0.21548383 1.3630002 14864870
0.51416618 -0.21538132 1.3640003 15194861
0.52505147 -0.21366857 1.368 15655667
0.53200006 -0.21410286 1.368 15984884
0.4549824 -0.20769525 1.363 15061983
0.4776991 -0.2070462 1.363 14798558
0.48548764 -0.2056554 1.3630003 14798559
0.49587241 -0.20509906 1.3630003 14733026
0.50495905 -0.20509905 1.3630002 14930665
0.5145207 -0.20528714 1.3642501 15260397
0.52505147 -0.20585144 1.368 15589874
0.5341714 -0.20585142 1.368 15060716
0.54361707 -0.20422289 1.368 15130865
0.55892569 -0.20194286 1.368 16118006
0.56413716 -0.20194286 1.368 16183285
0.47899717 -0.19601238 1.363 15062244
0.4856731 -0.19378708 1.3630002 14995941
0.49587238 -0.19471429 1.3630003 14798819
0.50495911 -0.19471429 1.3630002 14865383
0.51440191 -0.19484794 1.3639377 14997224
0.52505141 -0.19542858 1.368 14209513
0.53404975 -0.19538422 1.3676876 15985397
0.54459423 -0.19542857 1.368 14996456
0.55487233 -0.19557333 1.368 16052213
0.56205267 -0.19568916 1.368 16183285
0.47834814 -0.18238239 1.363 15194603
0.48540112 -0.18406989 1.3630003 13942227
0.49587244 -0.18432952 1.3630003 14142177
0.50495905 -0.18432951 1.3630002 14865637
0.51463777 -0.18454176 1.3645626 15061472
0.52505147 -0.18500571 1.368 13810656
0.5341714 -0.18500574 1.368 15788019
0.54529583 -0.18550685 1.368 15651817
0.55531776 -0.1849055 1.368 15460081
0.56153142 -0.18457143 1.368 16183030
0.57325721 -0.18109715 1.368 16183285
0.47692022 -0.17368515 1.363 15195625
0.48548761 -0.1739448 1.3630003 13941974
0.49587241 -0.17394477 1.3630003 13941459
0.50495905 -0.17394476 1.3630002 14668005
0.51452076 -0.17410429 1.3642502 14996969
0.52505147 -0.17458287 1.368 14991325
0.53351998 -0.17436573 1.368 14736622
0.54719996 -0.17458285 1.368 15452894
0.55545139 -0.17349717 1.368 15328241
0.56283438 -0.17328 1.368 16116469
0.57325721 -0.17458287 1.368 16117494
0.47380477 -0.16745429 1.363 15588589
0.48548764 -0.1665889 1.3630002 13678800
0.49457431 -0.16745429 1.3630002 13813473
0.50625718 -0.16745429 1.363 14405861
0.51662308 -0.16561924 1.365 14864614
0.52463925 -0.16446121 1.3675455 14864352
0.53368211 -0.16531405 1.3667501 14340069
0.54459429 -0.16416 1.368 15192290
0.55493027 -0.16424687 1.3680001 14735593
0.56387657 -0.16494171 1.368 15589101
0.57195431 -0.16806857 1.368 15853812
0.64230859 -0.16806857 1.368 15127777
0.51794004 -0.15577142 1.363 12826072
0.52523524 -0.15582867 1.3666364 14470109
0.53325772 -0.1557385 1.3650002 14733536
0.54459429 -0.15504001 1.368 14863583
0.55501711 -0.15504001 1.368 15327725
0.56257373 -0.15451887 1.368 15720943
0.51682746 -0.14483033 1.3630002 13615049
0.52443051 -0.14538665 1.3630003 14865639
0.53351712 -0.14538667 1.3630002 15326446
0.54459429 -0.14591999 1.368 15655410
0.55501711 -0.14591999 1.368 15919092
0.56361604 -0.14539887 1.368 15852787
0.51664197 -0.13500191 1.363 14733279
0.52443051 -0.13500193 1.3630003 14339292
0.53505933 -0.13506441 1.3636253 14932202
0.54476321 -0.13501744 1.364154 15655152
0.55514145 -0.13555132 1.3676667 15852786
0.56544 -0.13549715 1.368 16050420
0.57418776 -0.1375445 1.3680001 16115956
0.62862861 -0.1348457 1.368 15522797
0.65533721 -0.13158856 1.368 14403032
0.66282856 -0.13386856 1.368 13941968
0.46861237 -0.12072286 1.363 7361636
0.50755525 -0.12072286 1.363 5439859
0.51664197 -0.12461714 1.363 12302302
0.52443051 -0.12461714 1.3630003 14668511
0.53455567 -0.12487676 1.3630003 14404320
0.54503661 -0.12466559 1.3668463 15524337
0.55501711 -0.1250743 1.368 15787251
0.56543994 -0.1250743 1.368 15918579
0.57542861 -0.12681143 1.368 15984628
0.58530861 -0.12377143 1.368 15720945
0.60452574 -0.12116572 1.368 15720430
0.65620577 -0.12637715 1.368 14271445
0.66054857 -0.1250743 1.368 13876689
0.45822763 -0.11423238 1.363 4860485
0.46082383 -0.11423238 1.363 5193814
0.49457431 -0.11682858 1.363 6770272
0.51742083 -0.11501124 1.363 4675483
0.52605307 -0.11260976 1.363 14405598
0.53451949 -0.11465722 1.3645386 14601178
0.54485488 -0.11439086 1.3680001 14866153
0.55501711 -0.11465143 1.368 15523310
0.56544 -0.11465143 1.368 15654896
0.57429945 -0.11386973 1.368 15786736
0.5846107 -0.11334858 1.3680001 15786738
0.62797713 -0.11074285 1.368 15523045
0.63579428 -0.11074285 1.368 13734074
0.65794289 -0.11856001 1.368 13943501
0.66054857 -0.11856001 1.368 13744587
0.6787886 -0.11334857 1.368 13218496
0.44697747 -0.10428032 1.3630002 13280171
0.52675217 -0.10493124 1.367 13486299
0.53443837 -0.10412981 1.3677058 14600924
0.54486984 -0.10448137 1.3670626 14799588
0.55487037 -0.10389022 1.3670001 15260394
0.56544 -0.10422857 1.368 15589357
0.57586288 -0.10422857 1.368 15523567
0.58446175 -0.10344686 1.368 15654383
0.59475434 -0.10162286 1.368 15720687
0.60478634 -0.10188343 1.368 15654638
0.62928003 -0.10422857 1.368 15523304
0.63579428 -0.10553142 1.368 15325669
0.44784287 -0.096059054 1.363 15126714
0.45043904 -0.092164762 1.363 16639440
0.52542365 -0.094364084 1.3680001 14076634
0.53417146 -0.095108569 1.368 14337497
0.54459429 -0.095108569 1.368 14733025
0.55501711 -0.095108584 1.368 14996711
0.56526661 -0.095080405 1.3675833 15325928
0.57586288 -0.095108569 1.368 15194343
0.58465719 -0.094782867 1.368 15391469
0.59395814 -0.094240002 1.368 15589357
0.60496002 -0.094240002 1.368 15719916
0.61104006 -0.093805715 1.368 15523308
0.51764172 -0.085254699 1.3651429 14011347
0.52515489 -0.085641772 1.3672309 14075859
0.53443199 -0.086249158 1.3680001 14008530
0.54459435 -0.085988581 1.368 14798814
0.55501711 -0.085988574 1.368 15062244
0.56543994 -0.085988574 1.368 15457258
0.57586282 -0.085988574 1.368 15457514
0.58465719 -0.087617144 1.368 15523054
0.59493196 -0.087291427 1.368 15326701
0.60396743 -0.08636082 1.3680001 14866663
0.61451435 -0.088594303 1.368 15325931
0.68768078 -0.083523437 1.3660001 5454708
0.69965386 -0.085831426 1.3655 7101560
0.70290619 -0.087785706 1.3655 8417935
0.5170747 -0.075289533 1.3630002 12103362
0.52443045 -0.075289525 1.3630003 12300227
0.53439808 -0.075679116 1.3633573 12169416
0.54443985 -0.074786395 1.3635885 10721725
0.55509329 -0.075907424 1.3640716 11182019
0.56563932 -0.07576032 1.363667 9670835
0.57544196 -0.07577391 1.367 8748715
0.5954057 -0.075565718 1.368 6968723
0.60061717 -0.075131431 1.368 6572163
0.68660575 -0.078171432 1.368 7094607
0.51664197 -0.066202864 1.3630002 4863075
0.52354372 -0.06528087 1.3634546 4666457
0.53504002 -0.066011429 1.368 4468312
0.54360795 -0.06618651 1.3671668 4401747
0.55428672 -0.068799049 1.363 4864336
0.56856573 -0.068799049 1.363 4336954
0.57375813 -0.068799049 1.363 4006201
0.3951886 -0.54174858 1.3740001 12428455
0.40584227 -0.54199564 1.3746252 12362408
0.41531879 -0.54240412 1.3756669 12493480
0.42397717 -0.54174858 1.3740001 11306384
0.43444574 -0.54218483 1.3740001 11903909
0.44491428 -0.54174858 1.3740001 12559529
0.45538291 -0.54174858 1.3740001 12822191
0.46567142 -0.54306126 1.3773335 12822443
0.47542673 -0.54503334 1.3789999 12822956
0.48593339 -0.54503334 1.3789999 12757421
0.49512672 -0.54503334 1.3789999 12822701
0.50468272 -0.54508263 1.3786154 12822956
0.51467538 -0.54425389 1.3776363 12822959
0.52205002 -0.54569 1.3790001 12823216
0.54503334 -0.54240668 1.3790001 12822960
0.39597377 -0.53520572 1.3740002 12756392
0.4061487 -0.53538191 1.3744549 12428457
0.41515264 -0.53564066 1.3751111 12559016
0.42345378 -0.53572911 1.3740002 11899542
0.43313718 -0.53695053 1.3740001 11772839
0.4449493 -0.53542006 1.3745558 12625319
0.45456591 -0.53544688 1.3786666 12691886
0.46492001 -0.53584003 1.3789998 12887980
0.4754267 -0.53583997 1.3789998 12888237
0.48593336 -0.53584003 1.3789998 12822956
0.49512669 -0.53584003 1.3789999 13019310
0.50344449 -0.53627777 1.3789999 12822957
0.51482666 -0.53978002 1.3790001 12757679
0.52139336 -0.53584003 1.3790001 12954288
0.53802896 -0.53715336 1.3790001 12822956
0.54590893 -0.53802896 1.3790001 12757421
0.38602859 -0.52866292 1.3740001 12691111
0.39702058 -0.52892464 1.3740001 12821929
0.40783811 -0.52648193 1.3740002 12624811
0.41505507 -0.52592677 1.3740002 12559526
0.42388991 -0.52578402 1.3740003 12559273
0.43540353 -0.52591276 1.3763686 12625066
0.44480252 -0.52599597 1.3782858 12691114
0.45441338 -0.52533334 1.3789998 12691115
0.46492001 -0.52533334 1.3789998 12757164
0.47542667 -0.5253334 1.3789998 12888749
0.48582232 -0.52521461 1.3786874 12954540
0.49482831 -0.52501673 1.3781667 13019823
0.50375718 -0.52495813 1.3789999 12888750
0.51482666 -0.52270669 1.3789999 13020081
0.52226889 -0.52445781 1.3790001 13020084
0.38864574 -0.51165146 1.3740001 12757165
0.39780572 -0.51296008 1.3740001 12887977
0.40621799 -0.51520336 1.3740003 12691370
0.41481715 -0.5155772 1.3740003 12756906
0.42371544 -0.51531553 1.3740002 12756909
0.4352386 -0.51504433 1.3755387 12756909
0.44522005 -0.51482671 1.3789999 12493998
0.45441338 -0.51482671 1.3789998 12625576
0.46483248 -0.51508945 1.3789999 12822959
0.47542667 -0.51482671 1.3789998 12954289
0.4858458 -0.51508939 1.3789999 12954798
0.49512669 -0.51482677 1.3789999 13020083
0.50458276 -0.51508945 1.3789999 13085616
0.51520109 -0.51487458 1.3786874 13085871
0.52310193 -0.51485622 1.3775717 13020076
0.39707878 -0.50612634 1.3740002 12822704
0.4056572 -0.50641721 1.3740002 12691630
0.4141629 -0.50838 1.3740001 12823214
0.42332289 -0.50838 1.3740001 12887725
0.43680117 -0.50589371 1.3740001 12559787
0.44432423 -0.50461799 1.3762224 12493483
0.45420623 -0.50409091 1.3783749 12625579
0.46537039 -0.50473839 1.3778236 12822956
0.47465897 -0.50424606 1.3745002 12954545
0.48505282 -0.50432247 1.3754289 13020339
0.49539119 -0.50468266 1.3786154 13151154
0.50432003 -0.50432009 1.3789998 13151154
0.51463991 -0.50459731 1.3787057 13151408
0.52264148 -0.50484383 1.3784443 13020080
0.39911428 -0.49725717 1.3740001 12954284
0.40733963 -0.49370533 1.3740001 10387855
0.41220006 -0.49333143 1.3740001 11437715
0.43776494 -0.49406525 1.3748335 12756398
0.44435349 -0.49426612 1.3740003 12888238
0.45538655 -0.49408805 1.3755388 12428453
0.46610358 -0.49473861 1.3750004 12888238
0.47501147 -0.49464005 1.3740003 12954288
0.48402816 -0.49449736 1.3743336 13085615
0.49512666 -0.49512666 1.3789999 13151411
0.50416648 -0.49497709 1.3785833 13085620
0.51482671 -0.49512672 1.3789999 13151411
0.52270669 -0.49512669 1.3790001 13151925
0.41220003 -0.48548001 1.3740001 13021357
0.43837145 -0.48417142 1.3740001 12888495
0.44491428 -0.48473224 1.3740003 12690605
0.45383641 -0.48429045 1.3740002 12493223
0.46549457 -0.48429039 1.3740002 12888497
0.47522843 -0.48519769 1.3776667 12954544
0.48571488 -0.48571306 1.3783749 13086131
0.49442607 -0.48455045 1.3759232 13020596
0.50396967 -0.48561031 1.3773334 13151666
0.51482666 -0.48593333 1.3789998 13217461
0.52270669 -0.48593336 1.3789999 13151924
0.5364967 -0.48396334 1.3790001 12357271
0.43837145 -0.47632003 1.3740001 12887977
0.44491434 -0.47553492 1.3740002 12690858
0.45538288 -0.47501144 1.3740002 12822958
0.4653146 -0.47500378 1.3755001 12954547
0.47542667 -0.47542664 1.3789998 11573415
0.48531926 -0.4753443 1.378 12889523
0.4941166 -0.47553489 1.3740002 13151668
0.50522757 -0.47524938 1.3740002 13217461
0.51582974 -0.47513777 1.3781667 13348534
0.52270669 -0.47542667 1.3789999 13348534
0.4462229 -0.46716002 1.3740002 12953519
0.4559437 -0.46622539 1.3740003 13085358
0.46545532 -0.4654502 1.3766924 12823723
0.4754267 -0.46492001 1.3789998 9267588
0.48606059 -0.46520576 1.3787057 11707313
0.49334374 -0.4645237 1.3755001 13020341
0.50791276 -0.46566454 1.3740001 13283253
0.51536107 -0.46421564 1.3769169 13283000
0.52270669 -0.46491998 1.3789999 13283003
0.4174343 -0.45407429 1.3740001 12161180
0.4475314 -0.45538291 1.3740001 11506341
0.45447692 -0.45548356 1.3740003 12363184
0.46517241 -0.45446193 1.3765001 13217444
0.4754267 -0.45441332 1.3789998 8999785
0.48593333 -0.45441338 1.3789998 12493220
0.49535897 -0.4550986 1.3766471 13217717
0.50435263 -0.45438337 1.376353 13217719
0.51482666 -0.45441338 1.3789998 13217722
0.52270669 -0.45441332 1.3789999 13282999
0.53584003 -0.45704001 1.3790001 13415099
0.44884002 -0.44622287 1.3740001 10383491
0.45320192 -0.44535056 1.3740002 9989255
0.46577385 -0.44508415 1.3767779 11238044
0.47542673 -0.44521999 1.3789999 9926264
0.48593336 -0.44522005 1.3789999 11903665
0.49512666 -0.44521999 1.3789999 13086903
0.50432003 -0.44522005 1.3789999 13217719
0.51482671 -0.44522008 1.3789999 13086905
0.52270669 -0.44521999 1.3790001 13217976
0.44884002 -0.43052003 1.3740001 13480374
0.45616803 -0.43104345 1.3740001 13349043
0.46570313 -0.43429041 1.3743337 12756392
0.47620371 -0.43620926 1.3786154 13348527
0.48582411 -0.43592879 1.3786874 13348787
0.49512666 -0.43602666 1.3789999 13217717
0.50432003 -0.43602663 1.3789998 13217460
0.51459157 -0.43583027 1.3783749 12955060
0.52270669 -0.43602669 1.3789999 13152439
0.53190005 -0.43208668 1.3790001 13414586
0.60282004 -0.43471336 1.3790001 14270159
0.44771844 -0.42453802 1.3740001 13282743
0.45538285 -0.4239772 1.3740003 13348019
0.46585143 -0.42397717 1.3740003 13348533
0.47587812 -0.42475098 1.3765001 13282741
0.4852756 -0.42494264 1.377125 13151670
0.4952319 -0.42459685 1.3772142 13217463
0.50462234 -0.42567623 1.3782858 13217465
0.51459157 -0.42532599 1.3783749 13283514
0.52270669 -0.42552003 1.3789999 13217977
0.53190005 -0.42946002 1.3790001 13479865
0.44753146 -0.41481715 1.3740001 13020600
0.4553152 -0.41463441 1.3777499 13282995
0.46521339 -0.41542098 1.3760002 13217716
0.47501147 -0.41481715 1.3740002 13151925
0.48427275 -0.41476068 1.3751541 13217209
0.49464005 -0.41481715 1.3740003 13216953
0.50554061 -0.41509622 1.378091 13152184
0.51482666 -0.41501334 1.3789998 13284026
0.52270669 -0.41501337 1.3789999 13414587
0.44709525 -0.40609336 1.3740002 12036277
0.45538288 -0.40500283 1.3740003 13217719
0.46454287 -0.40696573 1.3740002 13217719
0.4758839 -0.40783811 1.3740001 12691373
0.48542958 -0.40526125 1.3753334 12036537
0.49483928 -0.405568 1.3760589 13348797
0.50466365 -0.40516597 1.3774616 12560054
0.51525658 -0.4047775 1.3786428 13546945
0.52336335 -0.40450668 1.3789999 13678534
0.44884002 -0.39649716 1.3740001 13415097
0.45669144 -0.39649719 1.3740001 13151675
0.46192575 -0.39649719 1.3740001 13415097
0.47665855 -0.39461875 1.3745556 10780816
0.48477301 -0.39424264 1.376353 9860235
0.49556252 -0.39489663 1.3763336 12233136
0.50573504 -0.39521351 1.3750004 9270677
0.51580071 -0.3940976 1.3780909 13547975
0.52492625 -0.39444268 1.3779286 14073808
0.53415143 -0.39418763 1.3790001 14337495
0.458 -0.38079429 1.3740001 12691614
0.46716005 -0.38210285 1.3740001 10905230
0.47571817 -0.38512331 1.3767275 9730437
0.48556203 -0.38499466 1.3782307 13087157
0.49515295 -0.38511667 1.3754288 11305880
0.50502539 -0.38515428 1.3755627 11965856
0.51582223 -0.3848733 1.377077 14205136
0.52533334 -0.38546336 1.3790001 14468312
0.53190005 -0.38743335 1.3790001 14666460
0.56079334 -0.38218004 1.3790001 14212070
0.44556859 -0.37752289 1.3740001 11893117
0.45538288 -0.37032571 1.3740001 13348539
0.46803236 -0.37381527 1.3740002 13087413
0.47559083 -0.37470543 1.375667 13416126
0.48527083 -0.37510616 1.377125 13546948
0.49511358 -0.37499854 1.3778461 13875660
0.50474691 -0.37593561 1.3783749 14139091
0.5152483 -0.37544131 1.3783748 14534107
0.52205002 -0.3743 1.3790001 14863586
0.55816668 -0.3743 1.3790001 14520007
0.45721489 -0.36666176 1.3740001 13349054
0.46781433 -0.36705431 1.3740001 13349563
0.47762862 -0.36770859 1.3740001 13480647
0.48452833 -0.36509141 1.3740002 13744330
0.49493837 -0.36531287 1.3748335 14205139
0.50537473 -0.36510256 1.3776363 14600413
0.51482666 -0.3651067 1.3789998 14995939
0.52244401 -0.36484405 1.3790001 15259370
0.47239432 -0.35724002 1.3740001 13612231
0.48344448 -0.35636762 1.3740002 13941966
0.49554598 -0.35623339 1.3740003 14468826
0.50445777 -0.35579059 1.3765001 14798817
0.51473922 -0.35486275 1.3789999 15193834
0.52226889 -0.35372448 1.3790001 15588848
0.47762862 -0.3441543 1.3740001 14008014
0.48199052 -0.34764385 1.3740001 14008016
0.49660289 -0.34873432 1.3740001 14600671
0.50403798 -0.34581977 1.3740002 15127785
0.51377541 -0.34504011 1.3759234 15523569
0.52369165 -0.34409338 1.3789999 15918323
0.53190005 -0.34146667 1.3790001 15984372
0.66323334 -0.34015334 1.3790001 11431326
0.49071428 -0.33630288 1.3740001 14601183
0.50772572 -0.33630288 1.3740001 15391984
0.5155772 -0.33499429 1.3740003 15655154
0.52643561 -0.33476511 1.3784443 15786738
0.53548187 -0.33466128 1.3789999 15852787
0.54240668 -0.33358669 1.3790001 15852529
0.49682102 -0.32147241 1.3740001 13946337
0.50537032 -0.32426405 1.3740003 14800363
0.5155772 -0.32452574 1.3740003 14732011
0.52606297 -0.32672811 1.3789999 14997744
0.5354023 -0.32964668 1.3790001 15918579
0.49333146 -0.31798288 1.3740001 12413360
0.50851089 -0.31484231 1.3740001 12823515
0.5155772 -0.31405714 1.3740003 14799076
0.52599001 -0.31454334 1.3789999 15458545
0.54240668 -0.31126001 1.3790001 15918323
0.55186272 -0.31336135 1.3790001 15983858
0.60413337 -0.31213558 1.3790001 12091059
0.62252003 -0.31388667 1.3790001 10713255
0.63302666 -0.31651336 1.3790001 9995692
0.50903428 -0.30489716 1.3740001 14735856
0.51522028 -0.30465919 1.3740002 15391470
0.52624261 -0.30499643 1.3789999 15523569
0.5360589 -0.30359891 1.3789999 15984884
0.54345733 -0.30495602 1.3790001 16050933
0.55291337 -0.30457395 1.3789999 16117238
0.56492102 -0.30413049 1.3790001 14205151
0.58916134 -0.30443069 1.3790001 15656435
0.59297001 -0.30535001 1.3790001 14600395
0.60413337 -0.30732 1.3790001 9867961
0.50903428 -0.29966289 1.3740001 14211055
0.5155772 -0.29966289 1.3740001 15523055
0.52727234 -0.29467857 1.3762729 15720947
0.53702658 -0.29476139 1.378 15985140
0.54398268 -0.29287335 1.3790001 16050676
0.55291337 -0.29812667 1.3790001 16116725
0.56604666 -0.29812667 1.3790001 13022436
0.58968669 -0.29812667 1.3790001 16246510
0.59231335 -0.29812667 1.3790001 16378589
0.68950003 -0.29024667 1.3790001 13350088
0.52592683 -0.28633922 1.3740002 15720946
0.53496778 -0.28491172 1.3740002 15918579
0.54503334 -0.28499338 1.3789999 15918579
0.58706003 -0.28236669 1.3790001 16180724
0.52604574 -0.27316427 1.3740001 15458032
0.53622228 -0.27400443 1.3751112 15852787
0.54453933 -0.27555358 1.3777502 15918836
0.5542267 -0.27186 1.3790001 16115956
0.56210667 -0.27186 1.3790001 16182776
0.58668482 -0.27411145 1.3790001 15853042
0.59231335 -0.27317333 1.3790001 16050163
0.5265829 -0.26448938 1.3748336 15262450
0.53570127 -0.26446828 1.3763081 14471405
0.54528785 -0.26464784 1.3770001 14604270
0.55466145 -0.26404685 1.3754288 15853301
0.56519234 -0.26489696 1.3769166 15583713
0.57195669 -0.26398003 1.3790001 13356004
0.63565332 -0.26135334 1.3790001 15852531
0.51601338 -0.2525543 1.3740001 12500948
0.5258888 -0.25489074 1.3776363 12883667
0.5343793 -0.25540361 1.3752502 14467801
0.54452968 -0.25524962 1.3744171 12161972
0.55483437 -0.25517148 1.3740003 14275821
0.56412864 -0.25438514 1.3749094 15656174
0.57217562 -0.2556622 1.3790001 14075628
0.63609111 -0.25522441 1.3789999 15918835
0.64353335 -0.2561 1.3790001 15391215
0.66454667 -0.25741336 1.3790001 14007760
0.67308331 -0.2561 1.3790001 13744591
0.51668322 -0.24613357 1.3753638 13093596
0.52669179 -0.24557918 1.3747146 13871569
0.53520578 -0.24653485 1.3740002 14669800
0.54436576 -0.24601139 1.3740003 13806507
0.55484253 -0.24604292 1.3746669 12492225
0.5649718 -0.24544118 1.3769168 14341614
0.57130003 -0.24428001 1.3790001 15515369
0.60019332 -0.24034001 1.3790001 16183798
0.62908667 -0.24428001 1.3790001 16116724
0.63521558 -0.24530149 1.3789999 16050676
0.6455034 -0.24625 1.3790001 15456749
0.66848665 -0.24428001 1.3790001 13810896
0.67111337 -0.24296668 1.3790001 13745103
0.52847594 -0.23685145 1.3740001 15786473
0.53520572 -0.23554289 1.3740003 15323877
0.54448867 -0.23559617 1.3743129 15524591
0.55508488 -0.23564884 1.3746253 16180972
0.56492984 -0.23557343 1.3762729 15194594
0.57130003 -0.23508668 1.3790001 16246508
0.58968669 -0.23771334 1.3790001 16183542
0.59494001 -0.23613735 1.3790001 16183542
0.60807335 -0.23771334 1.3790001 16183542
0.61420226 -0.23771334 1.3790001 16117494
0.62383336 -0.23771334 1.3790001 16183286
0.52997148 -0.22507429 1.3740001 15655411
0.53520572 -0.22507429 1.3740003 15853043
0.54492658 -0.22544819 1.3740003 16050676
0.55496079 -0.22512639 1.3743128 16183029
0.56469107 -0.22580479 1.3762729 16249078
0.57130003 -0.22589335 1.3790001 16249078
0.588045 -0.22490835 1.3789999 16183798
0.59517884 -0.22553518 1.3789999 16183542
0.60216331 -0.22261001 1.3790001 16183286
0.69475335 -0.22195335 1.3790001 13547468
0.5273543 -0.21853143 1.3740001 15590130
0.53695053 -0.21765906 1.3740001 15984628
0.54436576 -0.21497959 1.3740003 16051189
0.55430472 -0.21432707 1.3743128 16117237
0.56472659 -0.21488906 1.3757859 16117493
0.57524002 -0.21473001 1.3789999 16183285
0.58574671 -0.21538672 1.3789998 16183286
0.59314239 -0.21473825 1.3748336 16183285
0.60310012 -0.21484718 1.3779285 16117493
0.61464 -0.21144667 1.3790001 16183285
0.62295783 -0.2131978 1.3790001 16117237
0.6546967 -0.21210335 1.3790001 14733277
0.66454667 -0.21275999 1.3789999 14074322
0.67515439 -0.21447745 1.3789999 13613770
0.68477207 -0.211972 1.3790001 13548238
0.69573832 -0.21571499 1.3789999 13547467
0.70368403 -0.21529914 1.3789999 13612747
0.54829156 -0.20544574 1.3740001 16182004
0.55592483 -0.20479147 1.3740003 16117237
0.5658263 -0.20544572 1.3740002 16117493
0.57550877 -0.20426877 1.3755388 16117749
0.58600944 -0.20496757 1.3789999 16117750
0.59422255 -0.20462923 1.3773334 16183029
0.60358512 -0.20469135 1.3777499 16117237
0.61401618 -0.20481694 1.3785833 16117237
0.62427115 -0.20509891 1.3789999 16116981
0.65404004 -0.20882002 1.3790001 14798558
0.66556817 -0.20560963 1.3789999 14008274
0.67505336 -0.20488004 1.3789998 13613259
0.68468446 -0.20553669 1.3789999 13613773
0.69606668 -0.20882002 1.3790001 13612747
0.70263332 -0.20724402 1.3790001 13547469
0.55771321 -0.19445375 1.3740001 16118262
0.56818169 -0.19445373 1.3740001 16183541
0.57446289 -0.19497716 1.3740002 16183541
0.58574671 -0.19437332 1.3789998 16183541
0.5943563 -0.19422743 1.3789999 16183542
0.60449153 -0.19353761 1.3789999 16183285
0.61433697 -0.19407028 1.3789999 16183285
0.62449002 -0.19306003 1.3789999 16116980
0.66520333 -0.19765668 1.3790001 14008017
0.67538178 -0.19601502 1.3789999 13613006
0.68424672 -0.19306001 1.3790001 13613520
0.54392952 -0.18363622 1.3740001 16183033
0.55614293 -0.18625335 1.3740001 15135224
0.56748378 -0.18596254 1.3740002 16183286
0.57470083 -0.18617405 1.3740002 16183542
0.58474952 -0.18499325 1.3758183 16183285
0.59446275 -0.18503185 1.3778888 16183285
0.60376674 -0.18506967 1.3781667 16183029
0.61408329 -0.18501371 1.3777499 16183029
0.62383336 -0.18518001 1.3789999 16182516
0.63762331 -0.18321002 1.3790001 15984627
0.64484674 -0.18386668 1.3790001 15720688
0.65404004 -0.18386668 1.3789999 14930401
0.66257668 -0.18321002 1.3790001 14205651
0.67524105 -0.18367907 1.3790001 13482188
0.68818671 -0.18386668 1.3790001 13613515
0.69422805 -0.18360402 1.3790001 13613004
0.7008822 -0.18342891 1.3790001 13547211
0.53651428 -0.17404 1.3740001 15262708
0.54358059 -0.175872 1.3740002 15985400
0.55614287 -0.17862001 1.3740001 15066867
0.56791997 -0.17665717 1.3740001 16183286
0.57546955 -0.17504662 1.3740003 16051445
0.58485413 -0.17575093 1.3747694 16051445
0.59490156 -0.17559026 1.3758752 16050932
0.60415995 -0.17539626 1.3751541 15919091
0.61445546 -0.1759482 1.378 15919091
0.62488401 -0.1758991 1.3789999 15852786
0.6350978 -0.17534298 1.3762224 15523820
0.64490348 -0.17638724 1.378 15260137
0.65422767 -0.17561144 1.3789999 14666716
0.66235781 -0.17584074 1.3789999 14205139
0.67374003 -0.17992666 1.3790001 13613256
0.68739867 -0.17651199 1.3789999 13482188
0.69475335 -0.17598668 1.3789999 13481677
0.70150763 -0.17579906 1.3790001 13546953
0.55876005 -0.16357145 1.3740001 15785961
0.56922859 -0.16357145 1.3740001 15390953
0.57614529 -0.16431922 1.3740003 15522796
0.5856418 -0.16507763 1.3756669 15589102
0.59463137 -0.16503178 1.3752502 15523310
0.60434747 -0.16518001 1.3765001 15523051
0.61370981 -0.16489698 1.3760589 15523053
0.62532169 -0.1651829 1.3765001 15391724
0.63585144 -0.1651815 1.3745886 15391208
0.64512569 -0.16452314 1.3740002 15062242
0.65513295 -0.165075 1.3763335 14534873
0.66454667 -0.16521734 1.3789999 14139347
0.68774891 -0.16504224 1.3789999 13678798
0.69475341 -0.16548002 1.3789999 13416140
0.7008822 -0.16548002 1.3790001 13415882
0.5687052 -0.15519659 1.3740001 15786223
0.57518858 -0.15459855 1.3747696 15852787
0.58459103 -0.15451309 1.3756669 15918323
0.5942257 -0.15444745 1.3743129 15786224
0.60517389 -0.15490443 1.3774616 15523566
0.61469626 -0.15451902 1.3755791 15523311
0.62549716 -0.15441144 1.3740003 15522539
0.63632119 -0.15482047 1.3753335 15325161
0.64490223 -0.15415159 1.374385 14996451
0.65428567 -0.15441144 1.3740003 14535130
0.6642521 -0.15459794 1.3756669 14008532
0.67505342 -0.15497336 1.3789998 13744592
0.68565166 -0.15467718 1.3784117 13547213
0.69476318 -0.15528177 1.3785454 13481419
0.70204955 -0.15511926 1.3789999 13350599
0.56922859 -0.14786857 1.3740001 15919350
0.5754146 -0.1450135 1.3740002 15786738
0.58469117 -0.14428623 1.3743849 15786738
0.59422684 -0.14397471 1.3743129 15786224
0.60508239 -0.14437857 1.3781666 15654895
0.61562693 -0.14472793 1.3768126 15654124
0.62549716 -0.14394286 1.3740003 15523054
0.63573754 -0.14449108 1.3758185 15391212
0.64488965 -0.14468695 1.3782308 15193572
0.65442502 -0.14426008 1.3770555 14666716
0.66489881 -0.14403941 1.3778461 14139349
0.67505342 -0.14446667 1.3789998 13744590
0.6852482 -0.1443994 1.3783749 13546953
0.69475335 -0.14446667 1.3789999 13284553
0.70230496 -0.14413834 1.3789999 13350345
0.71839339 -0.14315334 1.3790001 13547212
0.72583556 -0.14227778 1.3790001 13547724
0.57760346 -0.13321258 1.3740001 16182262
0.58516908 -0.13483842 1.3745556 16050677
0.59409142 -0.13478287 1.3740003 15918579
0.60456002 -0.13478288 1.3740003 15655409
0.61548388 -0.13472588 1.3758183 15523565
0.62481248 -0.13526072 1.3744171 15522797
0.63714176 -0.13470794 1.3762223 15457258
0.64474255 -0.13397454 1.3769168 15259622
0.6538623 -0.13539422 1.3753638 14732510
0.66344571 -0.13652763 1.3740001 14074068
0.67461318 -0.1343499 1.3744549 13612747
0.68453854 -0.13381408 1.3789999 13415367
0.69344002 -0.13396001 1.3789999 13086661
0.7078867 -0.13396001 1.3790001 13349577
0.72758669 -0.13790001 1.3790001 13547979
0.57708007 -0.12468817 1.3740001 15918579
0.58405912 -0.12605906 1.3740001 15852274
0.59499741 -0.12592486 1.3740003 15720432
0.60418624 -0.12618369 1.3740003 15589101
0.61502856 -0.12562287 1.3740003 15654125
0.62538695 -0.12574026 1.3743337 15522797
0.63533634 -0.12497273 1.3750718 15588589
0.64510173 -0.12544326 1.3744168 15259367
0.65419847 -0.12536116 1.3740003 14666460
0.66606289 -0.12562287 1.3740002 13745102
0.67525196 -0.12551014 1.3767272 13481930
0.68521339 -0.12448763 1.3785454 13284549
0.69475335 -0.12476669 1.3789999 13087684
0.70225817 -0.12514192 1.3790001 13086658
0.57838857 -0.11908 1.3740001 15852786
0.58318669 -0.11602667 1.3740001 15786737
0.5943532 -0.11541599 1.3740003 15786737
0.60456002 -0.11515428 1.3740003 15786224
0.61502856 -0.11515428 1.3740003 15655150
0.62523544 -0.11541599 1.3740003 15589358
0.63586509 -0.11606023 1.3740003 14601955
0.64483708 -0.11571819 1.3745003 13942487
0.65427595 -0.1155798 1.3760003 13745876
0.66531688 -0.11451588 1.3761877 13744329
0.67522287 -0.11515427 1.3740003 13283267
0.68604672 -0.11502516 1.3747146 13020353
0.69506913 -0.11591588 1.3778889 13020351
0.70197666 -0.11557334 1.3789999 13086399
0.71051341 -0.11951334 1.3790001 13086407
0.5273543 -0.10076001 1.3740001 14606558
0.58493149 -0.10599428 1.3740001 15786737
0.59358817 -0.10518902 1.3740003 15720687
0.60477817 -0.1055581 1.3740003 15720687
0.61558944 -0.10505959 1.3740003 15589101
0.62549716 -0.10468572 1.3740003 15457259
0.6359657 -0.10337716 1.3740001 15260136
0.64469749 -0.10482918 1.3758752 15325412
0.65393907 -0.1055718 1.3789999 14930142
0.66537338 -0.10499047 1.378 14008528
0.6757552 -0.10496865 1.3777502 13481929
0.68612146 -0.10495239 1.3774999 13218502
0.69622248 -0.10458814 1.3784444 13086913
0.702667 -0.10459143 1.3766924 12823489
0.5273543 -0.098142862 1.3740001 14600412
0.59365529 -0.098142862 1.3740001 15588846
0.6049962 -0.096834287 1.3740001 15785965
0.61633718 -0.095852852 1.3740001 15523307
0.62575889 -0.094478868 1.3740003 15325418
0.63596576 -0.094217151 1.3740003 15325417
0.64530379 -0.093795143 1.3755001 15194859
0.65443391 -0.094911784 1.3786428 14996452
0.66409057 -0.094649762 1.3769412 14075349
0.67614782 -0.095216684 1.3789999 13351112
0.68579865 -0.09430892 1.3787057 12759234
0.69453329 -0.094858453 1.3780909 12495551
0.70248997 -0.094661728 1.3766668 12100799
0.58624005 -0.082440004 1.3740001 15261926
0.59353065 -0.083561644 1.3740001 14736360
0.61536884 -0.083385006 1.3752503 12629975
0.62544715 -0.084350891 1.3747145 12761301
0.63499314 -0.084242694 1.3762729 11708360
0.64484674 -0.085741915 1.3790001 12233678
0.65441531 -0.084616207 1.3789999 9732526
0.6628648 -0.08482413 1.3773335 8943773
0.67680454 -0.084928893 1.3790001 8020358
0.68577421 -0.084548511 1.3779286 6705531
0.69611335 -0.083893821 1.3765001 6705513
0.70008576 -0.086365715 1.3740001 7365506
0.71314007 -0.086680003 1.3790001 6707821
0.58516943 -0.075778194 1.3740002 7825054
0.5939045 -0.07627102 1.3740003 7693215
0.60511118 -0.07596381 1.3752501 6705287
0.61340159 -0.076377906 1.3780001 6244227
0.62547857 -0.077953905 1.3780001 5653112
0.63384193 -0.078000478 1.3765001 4267893
0.67914855 -0.078514293 1.3740001 7027545
0.68562818 -0.078000478 1.3765001 7491940
0.69606668 -0.077486672 1.3790001 5655380
0.53389716 -0.062811434 1.3740001 4338235
0.61332673 -0.069606669 1.3790001 6312038
0.54212862 -0.55004287 1.3850001 12691885
0.55268097 -0.55004287 1.3850001 12757421
0.56587148 -0.55004287 1.3850001 12757679
0.57510483 -0.55004287 1.3850001 12954026
0.58301908 -0.55004287 1.3850001 12822449
0.52630007 -0.54476666 1.3850001 12888748
0.55414659 -0.5450598 1.3850001 12822705
0.56491214 -0.54452688 1.3850002 12822700
0.57510483 -0.54476672 1.3850001 12822698
0.58400834 -0.54476666 1.3850001 12822190
0.50519526 -0.53685242 1.3850001 12692141
0.51442862 -0.53553343 1.3850001 12954287
0.52366191 -0.53553337 1.3850001 13019823
0.54608572 -0.53421432 1.3850001 12822961
0.5545277 -0.534742 1.3850001 12823217
0.56455249 -0.53553337 1.3850001 12822957
0.57450521 -0.53637278 1.3850002 12822959
0.58539337 -0.53526956 1.3850002 12888237
0.59383529 -0.5336867 1.3850001 12756913
0.51442862 -0.52893817 1.3850001 12954797
0.52682775 -0.52577239 1.3850001 13019825
0.53480059 -0.52307564 1.3850001 12954545
0.54344767 -0.52366197 1.3850001 13085359
0.55456537 -0.52592325 1.3850001 12954290
0.56217813 -0.52735531 1.3850001 12888498
0.57774293 -0.52630007 1.3850001 12954033
0.58735311 -0.52554631 1.3850001 12822962
0.59436291 -0.52498102 1.3850001 12691890
0.52893817 -0.51442862 1.3850001 12954545
0.53500575 -0.51469243 1.3850001 13020080
0.54388732 -0.51135087 1.3850001 13217202
0.55004287 -0.51574767 1.3850001 13020337
0.58961433 -0.51574767 1.3850001 12889266
0.59533024 -0.51398891 1.3850001 12888753
0.60280478 -0.51398897 1.3850001 12822960
0.61071908 -0.51838577 1.3850001 12757423
0.52893817 -0.50519532 1.3850001 13151410
0.53465402 -0.50431597 1.3850001 13085875
0.54476666 -0.50519532 1.3850001 13020339
0.55136192 -0.50519526 1.3850001 13086132
0.5956443 -0.50519532 1.3850001 12823216
0.60318172 -0.50594902 1.3850001 12822960
0.62390953 -0.50255722 1.3850001 12822193
0.52893817 -0.49596193 1.3850001 13151412
0.53553343 -0.4959619 1.3850001 12886187
0.54476672 -0.4959619 1.3850001 12035503
0.55004287 -0.49596193 1.3850001 13086643
0.596398 -0.4953967 1.3850001 12954291
0.60280484 -0.49464291 1.3850001 12822964
0.67799056 -0.49991909 1.3850001 12690861
0.52893817 -0.48540956 1.3850001 13152183
0.5344342 -0.48518974 1.3850001 13282993
0.54476672 -0.48540956 1.3850001 11704232
0.55215341 -0.48488194 1.3850001 13021110
0.5649122 -0.48385066 1.3850002 13151415
0.57510477 -0.48409054 1.3850001 12954550
0.58539337 -0.48409054 1.3850001 12954549
0.59518361 -0.48555613 1.3850001 12823217
0.60324448 -0.48453018 1.3850001 12559018
0.61071908 -0.48145244 1.3850001 13149876
0.62127143 -0.48145244 1.3850001 12822707
0.52893817 -0.47485715 1.3850001 13283001
0.53553343 -0.47485709 1.3850001 13217969
0.54476672 -0.47485715 1.3850001 11831964
0.55241722 -0.47459337 1.3850001 12890041
0.56443256 -0.47521693 1.3850002 13151413
0.57540923 -0.47577029 1.3850001 11900582
0.58565718 -0.47485712 1.3850001 11771567
0.59489048 -0.47485715 1.3850001 11376037
0.60468912 -0.47523403 1.3850001 11772077
0.61124671 -0.47459337 1.3850001 12752039
0.62179905 -0.47406575 1.3850001 12954804
0.63314289 -0.47090003 1.3850001 11765668
0.52893817 -0.4643048 1.3850001 13282999
0.53544551 -0.46456867 1.3850002 13348792
0.54476672 -0.46430477 1.3850001 11830676
0.55235124 -0.4643048 1.3850001 12431286
0.56191432 -0.46034765 1.3850001 13151673
0.57906199 -0.46694291 1.3850001 8218502
0.58170003 -0.46826196 1.3850001 8223127
0.59423101 -0.46628338 1.3850001 11311007
0.60280484 -0.46562386 1.3850001 12222873
0.61863339 -0.46298575 1.3850001 10573986
0.62534857 -0.46490437 1.3850002 11768996
0.63413221 -0.46529409 1.3850001 13086638
0.52893817 -0.45507145 1.3850001 13348791
0.53517365 -0.45483166 1.3850002 13414585
0.54476666 -0.4563905 1.3850001 12029861
0.55297405 -0.45448521 1.3850001 12692401
0.56455243 -0.4537524 1.3850001 13349304
0.60280484 -0.4537524 1.3850001 13480386
0.62813056 -0.45454383 1.3850001 13677503
0.63248336 -0.45573097 1.3850001 13480894
0.52893817 -0.44583812 1.3850001 13283512
0.53553343 -0.44583821 1.3850001 13283260
0.54476666 -0.44583815 1.3850001 12820909
0.55400002 -0.44583821 1.3850001 12362933
0.56455243 -0.44583812 1.3850001 13349308
0.57303202 -0.4445191 1.3850001 13480635
0.58433813 -0.44188097 1.3850001 12489648
0.59533024 -0.44363973 1.3850001 13809350
0.60386008 -0.44557443 1.3850002 13809606
0.61518353 -0.44512787 1.3850001 13875913
0.62593889 -0.4451279 1.3850001 13809863
0.63235146 -0.44557434 1.3850001 13678533
0.52893817 -0.43528575 1.3850001 13217718
0.53572184 -0.43566266 1.3850001 13348794
0.54476672 -0.43528575 1.3850001 13413813
0.55400002 -0.43528581 1.3850001 12032173
0.56455237 -0.43528578 1.3850001 13546433
0.57510477 -0.43528578 1.3850001 13874625
0.58539337 -0.43502194 1.3850002 12558775
0.59489053 -0.43528578 1.3850001 14008012
0.60403591 -0.43519789 1.3850002 14139600
0.61441249 -0.43554959 1.3850002 14205393
0.62431544 -0.43538722 1.3850001 14007499
0.63380241 -0.43429646 1.3850001 13612743
0.65029055 -0.43132862 1.3850001 13218756
0.52893817 -0.42473337 1.3850001 13283515
0.53553337 -0.42473337 1.3850001 13414587
0.54476672 -0.42473334 1.3850001 13677500
0.55400002 -0.42473334 1.3850001 12294837
0.56455237 -0.4247334 1.3850001 13745099
0.57510483 -0.42473337 1.3850001 14205389
0.58565712 -0.42473337 1.3850001 14006476
0.59489048 -0.42473334 1.3850001 14534875
0.60412383 -0.4247334 1.3850001 14601180
0.6131174 -0.42485327 1.3850002 14534361
0.62390959 -0.42416805 1.3850001 14138832
0.63578099 -0.42578861 1.3850001 13546436
0.65029055 -0.42737144 1.3850001 13284549
0.52893817 -0.41418099 1.3850001 13611970
0.53553343 -0.41418096 1.3850001 13743556
0.54476672 -0.41418096 1.3850001 14006980
0.55400002 -0.41418096 1.3850001 13083579
0.56455249 -0.41418096 1.3850001 14139605
0.57510483 -0.41418096 1.3850001 14534106
0.58565718 -0.41418096 1.3850001 14864611
0.59489048 -0.41418096 1.3850001 14930405
0.60412377 -0.41418093 1.3850001 14995941
0.61376303 -0.41387662 1.3850001 14797791
0.62414944 -0.41358143 1.3850002 14270417
0.63710004 -0.41374129 1.3850001 13017530
0.64633334 -0.41154289 1.3850001 12498346
0.65029055 -0.41286194 1.3850001 12165788
0.52893817 -0.40494764 1.3850001 13810121
0.53589314 -0.40518749 1.3850002 14006987
0.54476672 -0.40494767 1.3850001 14270672
0.55400002 -0.40494764 1.3850001 13543871
0.56455249 -0.40494761 1.3850001 14404060
0.57510483 -0.40494764 1.3850001 14863584
0.58565718 -0.40494761 1.3850001 14338785
0.59489048 -0.40494767 1.3850001 14735081
0.60412383 -0.40494764 1.3850001 14336995
0.61335719 -0.40494767 1.3850001 14798565
0.62127149 -0.40494764 1.3850001 12754380
0.6397382 -0.40494764 1.3850001 12091304
0.64501435 -0.40494761 1.3850001 11968427
0.65330547 -0.40419391 1.3850001 11176598
0.52893817 -0.39571431 1.3850001 14139603
0.53738004 -0.3954505 1.3850001 14403033
0.54476672 -0.39571434 1.3850001 14666204
0.55400002 -0.39571434 1.3850001 13939660
0.56455243 -0.39571431 1.3850001 14601440
0.57510471 -0.39571437 1.3850001 15258338
0.58565712 -0.39571437 1.3850001 13280196
0.59489048 -0.39571434 1.3850001 12887482
0.60412389 -0.39571431 1.3850001 13283785
0.61335725 -0.39644715 1.3850001 12625872
0.62390953 -0.39967147 1.3850001 11570868
0.64567387 -0.39901194 1.3850001 12296880
0.653808 -0.39615405 1.3850001 12556180
0.6608429 -0.39571431 1.3850001 11177392
0.67799056 -0.39307621 1.3850001 13284287
0.68590474 -0.39571437 1.3850001 13151677
0.69381917 -0.39703339 1.3850001 13151422
0.52761912 -0.38516197 1.3850001 14534105
0.53624368 -0.38445169 1.3850001 14864096
0.54476672 -0.38516197 1.3850001 15127269
0.55400002 -0.38516197 1.3850001 14994142
0.5646404 -0.38524991 1.3850002 14798311
0.57484108 -0.38542575 1.3850002 15521769
0.58400834 -0.38648099 1.3850001 14334933
0.59686905 -0.38714051 1.3850001 14454201
0.60148573 -0.38384289 1.3850001 14473183
0.65532696 -0.38408276 1.3850002 13481411
0.66137052 -0.38489813 1.3850001 13546945
0.67719907 -0.38516197 1.3850001 13283776
0.68616861 -0.38674483 1.3850001 13348287
0.69250005 -0.38911909 1.3850001 13479105
0.52780759 -0.37442115 1.3850001 15061733
0.53553343 -0.37460953 1.3850001 15193577
0.54476672 -0.37460956 1.3850001 15391214
0.55400002 -0.37460953 1.3850001 15719148
0.56481624 -0.37452161 1.3850002 14403043
0.57422543 -0.37373018 1.3850001 15390444
0.58334887 -0.37362027 1.3850001 15450070
0.59620959 -0.37329051 1.3850001 15458545
0.60400391 -0.37401 1.3850002 15653870
0.61282963 -0.37170765 1.3850001 15457261
0.62390953 -0.37065241 1.3850001 15126498
0.64765239 -0.37592861 1.3850001 13547208
0.6542477 -0.37460953 1.3850001 13481159
0.66216195 -0.37329051 1.3850001 13480900
0.52743071 -0.36386877 1.3850001 15456749
0.53553337 -0.36405712 1.3850001 15654386
0.54476672 -0.36405718 1.3850001 15720690
0.55400002 -0.36405709 1.3850001 15852272
0.56424803 -0.36497036 1.3850001 14466527
0.57519287 -0.36396924 1.3850002 15786227
0.58565718 -0.36405715 1.3850001 15059929
0.59489048 -0.36405718 1.3850001 15524340
0.60412377 -0.36405718 1.3850001 15720689
0.61467624 -0.36405712 1.3850001 15457007
0.62522864 -0.36405712 1.3850001 15193062
0.6318239 -0.36449689 1.3850001 14862555
0.64765239 -0.36141908 1.3850001 13677770
0.6542477 -0.36449689 1.3850001 13481158
0.6639207 -0.36537623 1.3850001 13349572
0.52827865 -0.35548335 1.3850001 15720946
0.53553337 -0.35482383 1.3850001 15853043
0.54476672 -0.35482383 1.3850001 15984628
0.55400002 -0.35482383 1.3850001 16116467
0.56059527 -0.35482383 1.3850001 14790872
0.57717764 -0.35444698 1.3850001 16050420
0.58565718 -0.35482383 1.3850001 16116212
0.59456074 -0.35482383 1.3850001 16049909
0.60412389 -0.35482383 1.3850001 15918325
0.61467624 -0.35482383 1.3850001 14208232
0.62522864 -0.35482383 1.3850001 15456492
0.63504821 -0.35482383 1.3850001 14665692
0.64765239 -0.35746193 1.3850001 13743306
0.66480005 -0.35548335 1.3850001 13349570
0.6766715 -0.35218576 1.3850001 13545922
0.70305246 -0.35218579 1.3850001 13349315
0.52893817 -0.34559047 1.3850001 15919092
0.53604072 -0.34630072 1.3850001 15984884
0.54476672 -0.34559053 1.3850001 16050676
0.55400002 -0.34559047 1.3850001 16116469
0.56279373 -0.34471115 1.3850001 14797290
0.57510483 -0.34577891 1.3850001 15985397
0.58565712 -0.34559047 1.3850001 15984372
0.59489048 -0.34559047 1.3850001 15984116
0.60412383 -0.34559053 1.3850001 15853815
0.61441243 -0.34585434 1.3850002 11828408
0.62742704 -0.34646985 1.3850001 15324653
0.6333313 -0.34690955 1.3850001 14863583
0.64501429 -0.3451508 1.3850001 14073040
0.65503913 -0.34400764 1.3850001 13284546
0.66449565 -0.34528613 1.3850001 12758719
0.67427319 -0.34523076 1.3850002 13087172
0.6960175 -0.3433921 1.3850001 13283267
0.7041077 -0.34532669 1.3850002 13218242
0.71096671 -0.3429524 1.3850001 13349575
0.53949052 -0.33108097 1.3850001 15918836
0.54589731 -0.33560342 1.3850001 15852530
0.55400002 -0.3350381 1.3850001 16049651
0.56474084 -0.33447281 1.3850001 14993126
0.57480049 -0.3359513 1.3850001 15787764
0.58565712 -0.33503813 1.3850001 15918066
0.59489048 -0.33503813 1.3850001 14666474
0.60412383 -0.33503813 1.3850001 15656694
0.61441249 -0.33512607 1.3850002 12162239
0.63644052 -0.33404881 1.3850001 14536163
0.64501435 -0.33503813 1.3850001 12820413
0.65424764 -0.3350381 1.3850001 12954558
0.66480005 -0.3350381 1.3850001 10977947
0.67403334 -0.33503813 1.3850001 12562114
0.6977762 -0.33767623 1.3850001 13218755
0.70473129 -0.33659697 1.3850002 13284033
0.71096671 -0.33899528 1.3850001 13415108
0.52893817 -0.32184762 1.3850001 15132146
0.53579724 -0.32422191 1.3850002 15984372
0.54476672 -0.32448572 1.3850001 15918579
0.55400002 -0.32448569 1.3850001 15984372
0.56455237 -0.32448572 1.3850001 14927584
0.57510489 -0.32505101 1.3850001 15656693
0.58535278 -0.325196 1.3850001 15983858
0.59489048 -0.32448572 1.3850001 14461652
0.60412383 -0.32448575 1.3850001 12960210
0.61467624 -0.32448572 1.3850001 12032204
0.62470096 -0.32316667 1.3850001 13550029
0.63578105 -0.32448572 1.3850001 12888788
0.64501441 -0.32448572 1.3850001 12949941
0.65424764 -0.32448572 1.3850001 13481672
0.66480005 -0.32712382 1.3850001 10778773
0.67271429 -0.32712382 1.3850001 12234177
0.68458575 -0.32118812 1.3850001 12955328
0.69513816 -0.32316667 1.3850001 13217736
0.52893817 -0.31525239 1.3850001 15720948
0.5363248 -0.31525239 1.3850001 15852787
0.54476666 -0.31558216 1.3850001 15852787
0.55381161 -0.3156293 1.3850001 15918324
0.56455249 -0.31525236 1.3850001 14862817
0.57498491 -0.31501254 1.3850002 15723509
0.58601695 -0.31501254 1.3850002 16050933
0.59489048 -0.31525239 1.3850001 15521238
0.60280484 -0.31638303 1.3850001 13419997
0.61503601 -0.31549221 1.3850002 13286093
0.62522864 -0.31525239 1.3850001 12093609
0.63512146 -0.31459287 1.3850001 10253473
0.64369529 -0.3178905 1.3850001 14531281
0.65688574 -0.31525242 1.3850001 10651057
0.66480005 -0.31393334 1.3850001 12033713
0.6740334 -0.31349367 1.3850001 12098724
0.68491548 -0.31492263 1.3850001 12561086
0.69513816 -0.31525239 1.3850001 13414594
0.53597307 -0.30909687 1.3850001 15918836
0.54634953 -0.3068105 1.3850001 16050676
0.55320859 -0.30575526 1.3850001 16117238
0.56352645 -0.30675188 1.3850001 15522279
0.57536864 -0.30593118 1.3850002 15920117
0.58539343 -0.30610698 1.3850002 16116725
0.59686905 -0.30535954 1.3850001 12417716
0.60324448 -0.30513975 1.3850001 11569352
0.61458832 -0.30610698 1.3850002 15918835
0.62522864 -0.30601907 1.3850001 15584472
0.63475507 -0.30704498 1.3850001 14334913
0.65580654 -0.30565935 1.3850002 14006988
0.66480005 -0.3060191 1.3850001 13612999
0.67504805 -0.3057147 1.3850001 13677763
0.68590486 -0.30601907 1.3850001 13480644
0.69579768 -0.30502981 1.3850001 13415108
0.70380616 -0.30319256 1.3850001 13415111
0.54674524 -0.29612619 1.3850001 16116213
0.55418849 -0.29546675 1.3850001 16050677
0.56428868 -0.29520291 1.3850002 15258604
0.57510483 -0.29546672 1.3850001 15722227
0.58565718 -0.29546669 1.3850001 15919092
0.59515429 -0.29467529 1.3850001 15919861
0.60412383 -0.29546666 1.3850001 14140122
0.61458832 -0.29520288 1.3850002 15852531
0.62412941 -0.2948072 1.3850001 15720434
0.63590091 -0.29414767 1.3850002 15391210
0.64501423 -0.29414764 1.3850001 14928864
0.65451157 -0.29520288 1.3850002 14270163
0.66480011 -0.29546672 1.3850001 13809866
0.67629462 -0.29678574 1.3850001 13612486
0.6859048 -0.29546669 1.3850001 13480903
0.69537801 -0.29582646 1.3850002 13349572
0.7041077 -0.29555467 1.3850002 13546439
0.71184605 -0.29326829 1.3850001 13612492
0.55531907 -0.28491434 1.3850001 15919092
0.56455237 -0.28491434 1.3850001 15522288
0.57510483 -0.28491434 1.3850001 15458033
0.58509183 -0.28529125 1.3850001 15984628
0.59489048 -0.28491434 1.3850001 15918582
0.60247505 -0.28656313 1.3850001 14795480
0.61665481 -0.28590363 1.3850001 15786995
0.62522864 -0.28491434 1.3850001 15852018
0.63578105 -0.28491434 1.3850001 15588848
0.64501441 -0.28491434 1.3850001 15061478
0.65398383 -0.28517815 1.3850002 14403032
0.66480005 -0.28491434 1.3850001 13875918
0.67535251 -0.28447467 1.3850001 13678794
0.68537718 -0.2862334 1.3850001 13546696
0.69489831 -0.28503424 1.3850002 13481159
0.70474839 -0.28510278 1.3850001 13546696
0.71096677 -0.28359526 1.3850001 13547724
0.55569595 -0.27605787 1.3850001 15984884
0.5644325 -0.27544117 1.3850002 16048113
0.57548171 -0.27492726 1.3850001 14931434
0.58499765 -0.27458179 1.3850001 15918323
0.59555006 -0.27403218 1.3850001 15984885
0.60368419 -0.27348259 1.3850001 16050932
0.61520386 -0.2733067 1.3850001 16050933
0.62522864 -0.27436194 1.3850001 16050420
0.63578105 -0.27436194 1.3850001 15720946
0.64501435 -0.27436197 1.3850001 15193323
0.65398383 -0.27462575 1.3850002 14600153
0.66480005 -0.27436194 1.3850001 13941711
0.67535245 -0.27436194 1.3850001 13678539
0.68590474 -0.27436194 1.3850001 13612491
0.69513816 -0.27436197 1.3850001 13481417
0.70437145 -0.27436194 1.3850001 13481162
0.71096671 -0.27436194 1.3850001 13612493
0.57730329 -0.26600796 1.3850001 15066097
0.58565712 -0.26512861 1.3850001 16182517
0.59489048 -0.26512858 1.3850001 16116725
0.60412383 -0.26512861 1.3850001 16116725
0.61467624 -0.26512861 1.3850001 16050932
0.62522864 -0.26512861 1.3850001 15984628
0.63525337 -0.2656562 1.3850001 15786482
0.64501435 -0.26512858 1.3850001 15390954
0.65388799 -0.26488876 1.3850002 14666206
0.66480011 -0.26512861 1.3850001 14073041
0.67535251 -0.26512861 1.3850001 13678796
0.68590474 -0.26512861 1.3850001 13678540
0.69425881 -0.26424924 1.3850001 13546698
0.7030524 -0.26578811 1.3850001 13612233
0.71096671 -0.26776668 1.3850001 13612237
0.57818264 -0.25501591 1.3850001 15721714
0.58565712 -0.25589526 1.3850001 16117238
