# .PCD v0.7 - Point Cloud Data file format
VERSION 0.7
FIELDS x y z rgb
SIZE 4 4 4 4
TYPE F F F F
COUNT 1 1 1 1
WIDTH 1051
HEIGHT 1
VIEWPOINT 0 0 0 1 0 0 0
POINTS 1051
DATA ascii
0.21555334 0.33996671 1.5190001 1.907442e-38
0.24738002 0.33996668 1.5190001 1.6138562e-38
0.25431669 0.33812833 1.5172501 1.7880919e-38
0.263715 0.33885166 1.5172501 1.7054761e-38
0.2748667 0.33996668 1.5190001 1.6872876e-38
0.28499335 0.33996671 1.5190001 1.723771e-38
0.29512003 0.33996668 1.5190001 1.8339013e-38
0.31651735 0.337872 1.5148001 1.8060627e-38
0.32600251 0.33754253 1.5146251 1.51075e-38
0.33573917 0.33645916 1.5146251 5.242563e-39
0.34582964 0.33684736 1.5151112 6.2614191e-39
0.35373148 0.33640379 1.5160002 1.1699508e-38
0.36255115 0.33559114 1.5166668 1.5394505e-38
0.48752668 0.33996668 1.5190001 7.3476707e-39
0.49476004 0.33996668 1.5190001 6.6187432e-39
0.50488669 0.33996668 1.5190001 7.3721023e-39
-0.55151999 0.34128001 1.5120001 1.5663903e-38
-0.54432005 0.34128001 1.5120001 1.5754293e-38
-0.53711998 0.34128001 1.5120001 1.5845767e-38
-0.52416003 0.34128001 1.5120001 1.557063e-38
-0.51438671 0.34228668 1.5143335 1.5570263e-38
-0.50516343 0.34351 1.5155001 1.5661743e-38
-0.49612448 0.3432467 1.5143335 1.5571339e-38
-0.48528004 0.34128004 1.5120001 1.5296186e-38
-0.42480001 0.34128004 1.5120001 1.5661743e-38
-0.41472003 0.34128001 1.5120001 1.5202562e-38
-0.35568002 0.34128001 1.5120001 1.2805473e-38
0.1944 0.34128004 1.5120001 1.9075147e-38
0.20448001 0.34128001 1.5120001 1.8983301e-38
0.21312001 0.34128001 1.5120001 1.9075135e-38
0.22515334 0.34351003 1.5155001 1.7784417e-38
0.23580667 0.34539166 1.5190001 9.852388e-39
0.2451722 0.34469002 1.5143335 8.9300659e-39
0.25416002 0.34200001 1.5120001 1.1607689e-38
0.26583418 0.34399748 1.5128751 8.7496418e-39
0.27486125 0.34485275 1.5139091 8.8425464e-39
0.28512004 0.34128001 1.5120001 1.6038431e-38
0.29577601 0.34243202 1.5120001 1.5578564e-38
0.30494002 0.34472078 1.5158889 1.741923e-38
0.31295776 0.34180671 1.5143335 1.8244665e-38
0.32688004 0.34128001 1.5120001 1.9067922e-38
0.33696002 0.34128001 1.5120001 1.482759e-38
0.34560001 0.34128001 1.5120001 1.1320248e-38
0.48752668 0.34286001 1.5190001 3.8604399e-39
0.51501334 0.34430668 1.5190001 3.1253412e-39
0.72521591 0.34799919 1.5146251 1.6038099e-38
0.73456883 0.34685001 1.5143335 1.7234119e-38
0.74504739 0.34774968 1.5151112 1.7694369e-38
0.75501001 0.34788004 1.5172501 1.815427e-38
0.76452667 0.34700671 1.5164546 1.7969868e-38
0.77510899 0.34629264 1.5143334 1.861237e-38
0.78422403 0.34531203 1.5120001 1.8887869e-38
0.79584002 0.34704003 1.5120001 1.8613093e-38
0.80145335 0.34575334 1.5190001 1.8703126e-38
0.23725334 0.35154 1.5190001 4.7016016e-39
0.72188669 0.35154 1.5190001 1.2722331e-38
0.73872006 0.35280004 1.5120001 1.0324125e-38
0.74448001 0.35280004 1.5120001 1.1246087e-38
0.75544894 0.35196003 1.5166668 1.4567651e-38
0.76464003 0.35568005 1.5120001 1.0778992e-38
0.44297621 -0.072619051 1.5250001 2.4849954e-39
0.39359528 -0.062452387 1.5250001 5.7060565e-39
0.42670956 -0.064195238 1.5250001 4.32602e-39
0.43467695 -0.065357141 1.5250002 4.0497876e-39
0.44491276 -0.065034397 1.5250001 3.7764139e-39
0.45343333 -0.066519052 1.5250001 3.6817141e-39
0.54500598 -0.064994052 1.5250001 4.0530274e-39
0.5544135 -0.065093078 1.525 4.3314108e-39
0.56207144 -0.063904762 1.5250001 4.3310492e-39
0.37834525 -0.053738102 1.5250001 4.6069158e-39
0.38459048 -0.054319054 1.525 4.8827755e-39
0.39504769 -0.054568037 1.525 4.9735502e-39
0.40811905 -0.053738099 1.5250001 4.0562658e-39
0.4139286 -0.053738099 1.5250001 3.6853239e-39
0.42554769 -0.057472795 1.5250002 4.6065683e-39
0.43426192 -0.059547625 1.5250001 4.6076431e-39
0.4516905 -0.05664286 1.5250001 4.699473e-39
0.54754764 -0.058095239 1.5250001 4.7913071e-39
0.55045241 -0.058095239 1.5250001 4.8831426e-39
0.36745238 -0.043571427 1.5250001 3.7753531e-39
0.37519845 -0.04437831 1.5250001 4.329973e-39
0.38488093 -0.045023814 1.5250001 4.790584e-39
0.39318031 -0.044193879 1.5250002 5.0653829e-39
0.41356549 -0.045386907 1.5250001 1.19768e-38
0.4284524 -0.047928575 1.5250001 7.9900553e-39
0.43426192 -0.047928575 1.5250001 7.8067388e-39
0.36620751 -0.035479598 1.5250002 3.3143792e-39
0.37492183 -0.034857146 1.525 3.8689977e-39
0.38488096 -0.034857146 1.525 4.4225288e-39
0.39484018 -0.034234699 1.525 4.6065655e-39
0.40479931 -0.032574832 1.5250002 3.8679341e-39
0.41102383 -0.034857146 1.5250001 5.8059607e-39
0.36745238 -0.024690479 1.5250001 3.4998466e-39
0.37511042 -0.02442641 1.525 4.2366956e-39
0.38488093 -0.024690477 1.5250001 4.2395711e-39
0.39504766 -0.024690477 1.525 4.3314065e-39
0.40521428 -0.024690479 1.5250001 4.32352e-39
0.41356549 -0.024327382 1.5250001 9.1432931e-39
0.36745238 -0.013071431 1.5250001 2.9456064e-39
0.37471431 -0.013901362 1.525 4.1437797e-39
0.38488099 -0.01452381 1.525 4.055177e-39
0.39504763 -0.01452381 1.5249999 4.1452244e-39
0.40521431 -0.014523811 1.525 6.4440447e-39
0.41363811 -0.015395238 1.525 1.9991351e-38
0.43716669 -0.011619048 1.5250001 1.484207e-38
0.44482476 -0.012807362 1.525 1.612487e-38
0.45285246 -0.012490477 1.5250001 1.5205087e-38
0.47783336 -0.010166667 1.5250001 1.7699043e-38
0.4807381 -0.010166667 1.5250001 1.7789379e-38
0.5664286 -0.010166667 1.5250001 1.8706993e-38
0.57611114 -0.011134922 1.5250001 1.1044431e-38
0.58567268 -0.01379762 1.5250001 1.5586755e-38
0.5925715 -0.010166667 1.5250001 1.4253655e-38
0.36551589 -0.0053253975 1.5250001 2.118703e-39
0.37471431 -0.0072619054 1.5250001 4.0512211e-39
0.38524404 -0.004720239 1.5250001 4.236683e-39
0.39465156 -0.0046212128 1.525 3.959408e-39
0.40327781 -0.0062936516 1.5250001 5.2473709e-39
0.41538095 -0.0043571433 1.5250001 2.2748964e-38
0.42627382 -0.0021785714 1.5250001 2.2549427e-38
0.43467692 -0.0035272115 1.5250002 1.4921696e-38
0.44442856 -0.0043571433 1.525 1.5940126e-38
0.4516905 -0.0058095241 1.5250001 1.5662824e-38
0.47783336 -0.0072619054 1.5250001 1.7509999e-38
0.4807381 -0.0058095241 1.5250001 1.7602479e-38
0.56580615 -0.0039421776 1.5250002 1.8338584e-38
0.57485241 -0.0061000003 1.5250001 1.1973197e-38
0.58530957 -0.0072619054 1.5250001 1.6871021e-38
0.59402382 -0.0072619054 1.5250001 1.285746e-38
0.36454764 0.001452381 1.5250001 2.4867611e-39
0.38633335 0.0043571433 1.5250001 4.0533819e-39
0.39465156 0.0046212133 1.525 3.8675501e-39
0.4066667 0.0050833337 1.5250001 1.1154634e-38
0.41558847 0.0035272113 1.5250002 2.128643e-38
0.42554769 0.0043571433 1.5250001 2.1473997e-38
0.43389884 0.0043571433 1.5250001 1.4099111e-38
0.44500956 0.0043571438 1.525 1.5571346e-38
0.4516905 0.001452381 1.5250001 1.5662816e-38
0.52430952 0.0065357145 1.5250001 1.1402077e-38
0.53157151 0.0072619054 1.5250001 1.7697556e-38
0.38705957 0.013797619 1.5250001 4.0533707e-39
0.39533818 0.014620637 1.525 2.9470596e-39
0.40438434 0.015976191 1.5250002 8.7496558e-39
0.41610715 0.015734129 1.525 2.0434731e-38
0.42554766 0.014523811 1.525 2.1287484e-38
0.43426192 0.014523812 1.525 1.455758e-38
0.44401366 0.015146258 1.525 1.5572787e-38
0.4551762 0.017719049 1.5250001 1.6584395e-38
0.46413952 0.017636055 1.5250002 1.6585123e-38
0.53011912 0.010166667 1.5250001 1.448583e-38
0.35728574 0.027595241 1.5250001 3.1252865e-39
0.38778576 0.024690477 1.5250001 3.869355e-39
0.39504766 0.024690479 1.525 2.6715531e-39
0.40521425 0.024690477 1.5250001 8.4957741e-39
0.41538101 0.024690477 1.525 2.2768376e-38
0.42554769 0.024690475 1.5250001 1.7983937e-38
0.43426195 0.024690477 1.5250001 1.4192047e-38
0.44442856 0.024690479 1.525 1.5845777e-38
0.45423216 0.024327384 1.5250001 1.7045722e-38
0.46492332 0.023722226 1.5250001 1.7323753e-38
0.50107145 0.026142858 1.5250001 1.7693959e-38
0.51559532 0.023964286 1.5250001 1.7782563e-38
0.52721429 0.024690479 1.5250001 1.3000614e-38
0.58530957 0.021785717 1.5250001 1.5207611e-38
0.60854763 0.024690477 1.5250001 1.750744e-38
0.6375953 0.024690477 1.5250001 1.6956793e-38
0.35815713 0.033985715 1.5250001 2.3005621e-39
0.36512861 0.03805238 1.5250001 2.7633662e-39
0.38681746 0.034857146 1.5250001 3.5938471e-39
0.39484018 0.033404764 1.5250002 2.4860716e-39
0.40521431 0.031952381 1.5250001 8.0452511e-39
0.41634926 0.033888891 1.525 2.2130195e-38
0.42554766 0.034857146 1.525 1.7250702e-38
0.43426192 0.034857146 1.525 1.4838121e-38
0.44442856 0.034857143 1.5249999 1.6213469e-38
0.4541803 0.034234699 1.5250002 1.7043214e-38
0.46548811 0.033404764 1.5250001 1.7792958e-38
0.6375953 0.0305 1.5250001 1.7694709e-38
0.64050001 0.0305 1.5250001 1.8709581e-38
0.35341272 0.045992069 1.5250001 7.270134e-39
0.3616429 0.042119049 1.5250001 2.3030985e-39
0.43542385 0.043861907 1.5250001 1.575824e-38
0.44482476 0.04502381 1.525 1.6768417e-38
0.45459524 0.045023806 1.5250001 1.6949591e-38
0.46294647 0.045386903 1.5250001 1.7597814e-38
0.48848414 0.045992069 1.5250001 1.5673931e-38
0.49351907 0.045604765 1.5250001 1.7784725e-38
0.50978571 0.046476193 1.5250001 1.8427568e-38
0.51559532 0.04696032 1.5250001 1.6954984e-38
0.52372855 0.046185717 1.5250001 1.427666e-38
0.53592861 0.047928575 1.5250001 1.7789411e-38
0.60854763 0.047928575 1.5250001 1.4284584e-38
0.61242068 0.04696032 1.5250001 1.4283511e-38
0.35873809 0.055190481 1.5250001 2.7615375e-39
0.3616429 0.059547622 1.5250001 3.3125785e-39
0.44505104 0.054775521 1.525 1.6679092e-38
0.45459521 0.055190481 1.525 1.6763408e-38
0.46413952 0.055190489 1.525 1.7507789e-38
0.47638097 0.050833337 1.5250001 1.8063071e-38
0.48945242 0.05664286 1.5250001 1.723803e-38
0.49526197 0.055190474 1.525 1.5758623e-38
0.50542861 0.055190478 1.5249999 1.7421699e-38
0.51585937 0.055586584 1.525 1.6676609e-38
0.52372855 0.054609526 1.525 1.3816405e-38
0.56207144 0.059547622 1.5250001 1.5675033e-38
0.61435717 0.050833337 1.5250001 1.4936034e-38
0.621135 0.055190485 1.5250001 1.6774899e-38
0.6375953 0.05664286 1.5250001 1.8813249e-38
0.64437306 0.056642868 1.5250001 1.47387e-38
0.65502393 0.056158733 1.5250001 1.4474704e-38
0.6641531 0.055397969 1.5250002 1.6672648e-38
0.67572027 0.057005953 1.5250001 1.8054468e-38
0.68116677 0.05664286 1.5250001 1.4540984e-38
0.35728571 0.063904762 1.5250001 3.0334496e-39
0.36236909 0.064630955 1.5250001 2.9445064e-39
0.4139286 0.065357149 1.5250001 2.341769e-38
0.44539687 0.065357149 1.5250001 1.6306032e-38
0.4545953 0.065357149 1.5250001 1.6585123e-38
0.46294647 0.064994052 1.5250001 1.6773824e-38
0.48945245 0.065357149 1.5250001 1.7608267e-38
0.49526194 0.065357149 1.5250001 1.5668567e-38
0.50542861 0.065357149 1.525 1.677779e-38
0.51559526 0.065357149 1.5250001 1.6676623e-38
0.52285719 0.065357149 1.5250001 1.2612526e-38
0.61726195 0.062452383 1.5250001 1.7051517e-38
0.62249053 0.063614286 1.5250001 1.6221033e-38
0.65696043 0.063420638 1.5250001 1.5937269e-38
0.66558665 0.065093078 1.525 1.7966593e-38
0.67499411 0.064994052 1.5250001 1.7686046e-38
0.68116671 0.063904762 1.5250001 1.4181481e-38
0.35583335 0.074071437 1.5250001 1.6534005e-39
0.38778573 0.078428581 1.5250001 3.2243303e-39
0.40811905 0.076976195 1.5250001 1.9355029e-38
0.43716669 0.07988096 1.5250001 1.6957128e-38
0.44646192 0.07610476 1.525 1.5572417e-38
0.4545953 0.075523816 1.525 1.6866016e-38
0.46447149 0.075814292 1.525 1.7052569e-38
0.47463813 0.076395236 1.525 1.731947e-38
0.48606354 0.075765878 1.525 1.4016978e-38
0.49552602 0.075127706 1.525 1.6398227e-38
0.50542861 0.075523809 1.5249999 1.668236e-38
0.51501435 0.074942864 1.525 1.6681999e-38
0.52463228 0.075362436 1.5250001 1.4007284e-38
0.53084534 0.077702388 1.5250001 1.8615563e-38
0.5761112 0.077944458 1.5250001 1.0699389e-38
0.58530962 0.075523816 1.5250001 1.5375448e-38
0.59319389 0.07739117 1.5250002 1.0330263e-38
0.66373813 0.072619051 1.5250001 1.7427026e-38
0.38662386 0.085109532 1.5250001 2.9491938e-39
0.39214289 0.085690491 1.5250001 3.4083628e-39
0.40637621 0.08452858 1.5250001 2.0271537e-38
0.41973811 0.08714287 1.5250001 2.3133191e-38
0.42554766 0.087869063 1.5250001 1.9888028e-38
0.43467692 0.086520419 1.5250002 1.7324117e-38
0.44403255 0.085426427 1.525 1.584972e-38
0.45459524 0.085690491 1.5250001 1.7604284e-38
0.46294644 0.085327394 1.5250001 1.6316093e-38
0.47202384 0.088595249 1.5250001 1.9268868e-38
0.48770958 0.086852394 1.5250001 1.5218027e-38
0.49526194 0.085690491 1.5250001 1.6759139e-38
0.50455719 0.085400008 1.525 1.705042e-38
0.51476538 0.086105458 1.5250002 1.613134e-38
0.52467263 0.086053587 1.5250001 1.3176827e-38
0.53219396 0.085275523 1.5250002 1.8525178e-38
0.55916673 0.08714287 1.5250001 1.6867086e-38
0.56497622 0.087433346 1.5250001 1.657687e-38
0.57530427 0.086658753 1.5250001 1.1156411e-38
0.58627784 0.087626994 1.5250001 1.527104e-38
0.59438694 0.08605358 1.5250001 1.4202789e-38
0.39359525 0.091500007 1.5250001 3.7756894e-39
0.40811905 0.091500007 1.5250001 2.2654432e-38
0.41828573 0.092952386 1.5250001 2.2728107e-38
0.42513269 0.093574837 1.5250002 2.0529788e-38
0.43467695 0.093574837 1.5250002 1.7692534e-38
0.4433912 0.093574844 1.5250002 1.6217783e-38
0.45501024 0.093574837 1.5250002 1.7602856e-38
0.46367267 0.095494047 1.5250001 1.7696862e-38
0.47492862 0.094888888 1.5250001 1.7038936e-38
0.48488784 0.093989804 1.5250002 1.3651074e-38
0.49526194 0.091500007 1.5250001 1.7036437e-38
0.50397623 0.091500007 1.5250001 1.7506382e-38
0.51675719 0.093823813 1.5250001 1.5193579e-38
0.52430952 0.094404757 1.5250001 1.1614197e-38
0.53084528 0.095130958 1.5250001 1.8435516e-38
0.56497622 0.094404772 1.5250002 1.593293e-38
0.57369047 0.094404757 1.5250001 1.0780811e-38
0.58705246 0.094985716 1.5250001 1.4253687e-38
0.59319395 0.093989804 1.5250002 1.4479377e-38
0.72619051 0.097309522 1.5250001 7.5417855e-39
0.43716669 0.10021429 1.5250001 1.8058779e-38
0.45653176 0.10457143 1.5250001 1.5475933e-38
0.46476197 0.10457142 1.5249999 1.7975258e-38
0.47460583 0.10473282 1.5250001 1.6679139e-38
0.48461115 0.10650794 1.5250001 1.1997664e-38
0.49562502 0.10638691 1.5250001 1.7421027e-38
0.50509346 0.10557692 1.525 1.7234479e-38
0.51523221 0.10566071 1.5250001 1.5291549e-38
0.52513951 0.10602383 1.5250002 1.3745438e-38
0.53266078 0.10566072 1.5250001 1.7603584e-38
0.54536909 0.10675001 1.5250001 1.7230861e-38
0.55335718 0.10675001 1.5250001 1.7046842e-38
0.56570244 0.10311906 1.5250001 1.3070959e-38
0.57514286 0.10457142 1.5249999 1.5107868e-38
0.58385718 0.10457144 1.5250001 1.712573e-38
0.59111911 0.10021429 1.5250001 1.4296752e-38
0.60757941 0.10699207 1.5250001 1.9260194e-38
0.61435717 0.10602381 1.5250001 1.795549e-38
0.62016672 0.10457143 1.5250001 1.6312145e-38
0.71747625 0.10166667 1.5250001 7.6347042e-39
0.72648096 0.10428096 1.5250001 7.8180179e-39
0.44007146 0.11764286 1.5250001 1.1142789e-38
0.45677382 0.11546429 1.5250001 1.0213671e-38
0.4643659 0.11447403 1.525 1.1958199e-38
0.47492862 0.11183335 1.5250001 1.2250193e-38
0.48469919 0.11447403 1.525 1.2516025e-38
0.49410006 0.11415716 1.5250001 1.2241617e-38
0.50397623 0.11328572 1.5250001 1.6283801e-38
0.51733822 0.11415716 1.5250001 1.5635132e-38
0.52430952 0.11473811 1.5250001 1.5015999e-38
0.53447628 0.11473811 1.525 1.656537e-38
0.5439167 0.1147381 1.5250001 1.5644189e-38
0.55384135 0.1166746 1.5250001 1.3143077e-38
0.56613809 0.1159 1.5250001 9.8269362e-39
0.57514286 0.1147381 1.525 1.2880157e-38
0.58530957 0.11473811 1.5250001 1.3068124e-38
0.59208739 0.11570635 1.5250001 1.1788531e-38
0.44588098 0.12926191 1.5250001 1.1869985e-38
0.45604765 0.12490477 1.5250001 1.2518595e-38
0.46137306 0.12442064 1.5250001 1.2980651e-38
0.47783336 0.12780952 1.5250001 1.454332e-38
0.48485321 0.12514685 1.525 1.5100091e-38
0.49429369 0.12151588 1.5250001 1.5831528e-38
0.50522113 0.12718707 1.5250002 2.2591171e-38
0.51617628 0.1254857 1.525 2.3142183e-38
0.52430958 0.12490477 1.525 2.2866677e-38
0.53418583 0.12461431 1.525 2.2499335e-38
0.54490697 0.12450866 1.525 2.2131993e-38
0.5543946 0.1246973 1.525 2.1764651e-38
0.56580615 0.12386736 1.5250002 2.0662625e-38
0.57586908 0.12369446 1.525 2.1121803e-38
0.58504546 0.12530088 1.525 2.2039797e-38
0.59514111 0.12591028 1.525 2.2865953e-38
0.60491669 0.12708333 1.5250001 2.341769e-38
0.68988103 0.12635714 1.5250001 2.341769e-38
0.69569051 0.1273254 1.5250001 2.341769e-38
0.70295244 0.12926191 1.5250001 2.341769e-38
0.7116667 0.12926191 1.5250001 2.341769e-38
0.44297621 0.13507144 1.5250001 1.1317169e-38
0.4545953 0.13449049 1.5250001 1.2147655e-38
0.4643659 0.13533551 1.525 1.2701553e-38
0.47492859 0.13507144 1.5250001 1.3532757e-38
0.48509532 0.13507143 1.525 1.454584e-38
0.4948988 0.13507143 1.5250001 1.491355e-38
0.50455719 0.13332857 1.5250001 2.158098e-38
0.51642531 0.13465647 1.5250002 2.341769e-38
0.52389461 0.13590138 1.5250002 2.341769e-38
0.53509873 0.13631634 1.5250002 2.341769e-38
0.5440619 0.13449048 1.5250001 2.341769e-38
0.55626196 0.13579762 1.5250001 2.341769e-38
0.56555718 0.13623336 1.5250001 2.341769e-38
0.5744167 0.13725001 1.5250001 2.341769e-38
0.5848946 0.13507144 1.5250002 2.341769e-38
0.59644449 0.1360397 1.5250001 2.341769e-38
0.60419053 0.13361906 1.5250001 2.341769e-38
0.61290479 0.13216667 1.5250001 2.341769e-38
0.67680955 0.1379762 1.5250001 2.341769e-38
0.70523477 0.13507144 1.5250002 2.341769e-38
0.71457142 0.13507144 1.525 2.341769e-38
0.34711909 0.1452381 1.5250001 8.9210248e-39
0.4656862 0.14642642 1.525 1.1874665e-38
0.47428307 0.14410847 1.5250001 1.2796267e-38
0.48565391 0.1446795 1.525 1.3350166e-38
0.49526191 0.1452381 1.525 1.343771e-38
0.50542861 0.1452381 1.5249999 2.2131993e-38
0.51518035 0.14752042 1.5250002 2.341769e-38
0.5214048 0.14088096 1.5250001 2.341769e-38
0.53447622 0.14378572 1.5250001 2.341769e-38
0.55792183 0.14503062 1.5250002 2.341769e-38
0.56642866 0.14475398 1.5250001 2.341769e-38
0.57514292 0.14378572 1.525 2.341769e-38
0.58498675 0.14507672 1.5250001 2.341769e-38
0.59518576 0.1440762 1.525 2.341769e-38
0.60647285 0.14586055 1.5250002 2.341769e-38
0.61290485 0.1452381 1.5250001 2.341769e-38
0.62161911 0.14088096 1.5250001 2.341769e-38
0.64703578 0.1452381 1.5250001 2.341769e-38
0.65444297 0.14785241 1.5250001 2.341769e-38
0.6763255 0.14330159 1.5250001 2.341769e-38
0.68439424 0.14636774 1.5250001 2.341769e-38
0.69278574 0.14959525 1.5250001 2.341769e-38
0.7048198 0.14295578 1.5250002 2.341769e-38
0.71428102 0.1440762 1.525 2.341769e-38
0.7523334 0.14814287 1.5250001 2.341769e-38
0.44878575 0.15540478 1.5250001 1.0217289e-38
0.45459527 0.15685715 1.5250001 1.0217292e-38
0.46476197 0.15540481 1.525 1.0771187e-38
0.47202384 0.15540478 1.5250001 1.1139614e-38
0.48622492 0.15540478 1.5250001 1.1691718e-38
0.49526194 0.15540478 1.5250001 1.1963666e-38
0.50542855 0.15540479 1.525 2.2040158e-38
0.51559532 0.15540478 1.5250001 2.341769e-38
0.5233413 0.15637302 1.5250001 2.341769e-38
0.5353477 0.15772858 1.5250001 2.341769e-38
0.54464287 0.15685715 1.5250001 2.341769e-38
0.55539054 0.15598573 1.525 2.341769e-38
0.56570244 0.15685716 1.5250001 2.341769e-38
0.57659525 0.15346828 1.5250001 2.341769e-38
0.5848946 0.15540478 1.5250002 2.341769e-38
0.59620237 0.15613097 1.5250001 2.341769e-38
0.60622388 0.15540478 1.5250001 2.341769e-38
0.61435717 0.15540478 1.5250001 2.341769e-38
0.62452388 0.15540479 1.525 2.341769e-38
0.63323814 0.15830953 1.5250001 2.341769e-38
0.64921433 0.15250002 1.5250001 2.341769e-38
0.65696043 0.15346828 1.5250001 2.341769e-38
0.66290826 0.15581974 1.5250002 2.341769e-38
0.68588692 0.15467858 1.5250001 2.341769e-38
0.69569051 0.15395239 1.5250001 2.341769e-38
0.70404172 0.15504168 1.5250001 2.341769e-38
0.71353406 0.15457484 1.5250002 2.341769e-38
0.43716669 0.16702382 1.5250001 8.6510226e-39
0.44515479 0.16484526 1.5250001 8.9279794e-39
0.45459524 0.16411906 1.5250001 9.2949711e-39
0.46476197 0.16557144 1.5249999 9.4786463e-39
0.47428313 0.16444182 1.5250001 9.9396272e-39
0.48476017 0.16501284 1.525 1.0216574e-38
0.49526191 0.16266668 1.5250001 1.1320454e-38
0.50600958 0.16411905 1.525 2.1856487e-38
0.51559532 0.16557144 1.525 2.341769e-38
0.52527779 0.16315082 1.5250001 2.341769e-38
0.53436458 0.16478936 1.525 2.341769e-38
0.54464293 0.16557144 1.525 2.341769e-38
0.55480957 0.16557144 1.5249999 2.341769e-38
0.56524032 0.16596754 1.525 2.341769e-38
0.57514286 0.16619389 1.525 2.341769e-38
0.58466405 0.16476457 1.5250001 2.341769e-38
0.59402382 0.16194049 1.5250001 2.341769e-38
0.60854763 0.16121429 1.5250001 2.341769e-38
0.61377627 0.16470002 1.5250001 2.341769e-38
0.62771904 0.16702382 1.5250001 2.341769e-38
0.63427562 0.16660887 1.5250002 2.341769e-38
0.64485717 0.16847619 1.5250001 2.341769e-38
0.6521191 0.16702382 1.5250001 2.341769e-38
0.66954762 0.16557145 1.5250001 2.341769e-38
0.674631 0.16557145 1.5250001 2.341769e-38
0.68465245 0.16470002 1.5250001 2.341769e-38
0.69605362 0.16666073 1.5250001 2.341769e-38
-0.27159524 0.17864287 1.5250001 1.502034e-38
-0.2686905 0.17864287 1.5250001 1.5205805e-38
0.4364405 0.17646429 1.5250001 7.637951e-39
0.4421463 0.17615308 1.5250002 7.7297823e-39
0.4516905 0.17864287 1.5250001 7.7294208e-39
0.46766669 0.17283334 1.5250001 8.9247466e-39
0.47202384 0.17428571 1.5250001 9.0173052e-39
0.48322791 0.17573811 1.5250002 9.6641109e-39
0.49609187 0.17573811 1.5250002 1.0780908e-38
0.50542855 0.1757381 1.5250001 1.8154718e-38
0.51414293 0.1757381 1.5250001 1.914769e-38
0.53689688 0.17380159 1.5250001 2.341769e-38
0.54415876 0.1757381 1.5250001 2.0934903e-38
0.55393809 0.17631905 1.5250001 2.0660831e-38
0.5646131 0.175375 1.5250001 2.1672816e-38
0.57594973 0.17509261 1.5250001 2.2040158e-38
0.58530962 0.1757381 1.5250001 2.2223829e-38
0.61493814 0.17515714 1.5250001 2.2499335e-38
0.62452388 0.1757381 1.525 2.2040158e-38
0.63432741 0.17537501 1.5250001 2.2591171e-38
0.64485717 0.1757381 1.525 2.2591171e-38
0.65502387 0.175375 1.5250001 2.3142183e-38
0.66479445 0.1757381 1.525 2.3234019e-38
0.67245245 0.17283334 1.5250001 2.341769e-38
0.68988103 0.17283334 1.5250001 2.341769e-38
0.69569051 0.17525399 1.5250001 2.341769e-38
-0.2686905 0.18154763 1.5250001 1.5850451e-38
-0.25126192 0.1844524 1.5250001 1.6771686e-38
-0.23383336 0.18154763 1.5250001 1.6679852e-38
-0.22511905 0.1844524 1.5250001 1.6403988e-38
-0.21640478 0.18251589 1.5250001 1.6402903e-38
-0.20188096 0.18154763 1.5250001 1.6311083e-38
-0.19413494 0.1844524 1.5250001 1.6402192e-38
-0.1844524 0.18735716 1.5250001 1.6401829e-38
-0.17646429 0.18663096 1.5250001 1.6218156e-38
-0.16702382 0.18735714 1.5250001 1.5942647e-38
-0.15540478 0.18735716 1.5250001 1.5390916e-38
-0.14378572 0.18590477 1.5250001 1.5574227e-38
-0.13507144 0.1844524 1.5250001 1.5480237e-38
-0.12345239 0.18154763 1.5250001 1.4928135e-38
-0.1147381 0.18154763 1.5250001 1.4744102e-38
-0.10457143 0.18154763 1.5250001 1.4650825e-38
-0.092952386 0.1844524 1.5250001 1.4468945e-38
-0.08714287 0.1844524 1.5250001 1.4652616e-38
-0.076007947 0.18542066 1.5250001 1.4560431e-38
-0.068261907 0.18735714 1.5250001 1.4561152e-38
0.036309525 0.18735714 1.5250001 2.0830806e-38
0.043571427 0.1844524 1.5250001 1.7786922e-38
0.055190481 0.1844524 1.5250001 1.8156064e-38
0.066809528 0.18590477 1.5250001 1.8432295e-38
0.075523816 0.18517859 1.5250001 1.8248625e-38
0.085690483 0.1844524 1.5250001 1.8248624e-38
0.094404772 0.18542066 1.5250001 1.8340821e-38
0.10457143 0.1844524 1.5250001 1.8248985e-38
0.1147381 0.18638889 1.5250001 1.8249338e-38
0.12490477 0.18735714 1.5250001 1.8340815e-38
0.14378572 0.18735716 1.5250001 1.8340456e-38
0.15250002 0.1844524 1.5250001 1.7879833e-38
0.42651591 0.18638889 1.5250001 6.1664209e-39
0.44152385 0.18154763 1.5250001 7.3620634e-39
0.4662143 0.18735714 1.5250001 7.7308627e-39
0.51414287 0.18735714 1.5250001 1.0493156e-38
0.54422796 0.18362246 1.5250002 9.3732224e-39
0.55480957 0.1844524 1.525 1.0480981e-38
0.56400794 0.18348414 1.5250001 1.0851922e-38
0.57223809 0.18154763 1.5250001 1.1042448e-38
0.58530957 0.18154763 1.5250001 1.1869686e-38
0.59547621 0.1844524 1.5250001 1.2693658e-38
0.60661113 0.18542066 1.5250001 1.3521618e-38
0.61338896 0.18348414 1.5250001 1.4177413e-38
0.62436241 0.18348415 1.5250001 1.4996766e-38
0.63275403 0.18251589 1.5250001 1.6381487e-38
0.6452533 0.18418832 1.525 1.6928913e-38
0.65460891 0.18528233 1.5250002 1.7012138e-38
0.66470635 0.18348415 1.5250001 2.0246477e-38
0.69278574 0.18154763 1.5250001 2.3417687e-38
-0.071166672 0.19026192 1.5250001 1.4470395e-38
-0.068261907 0.19026192 1.5250001 1.4652634e-38
0.42700005 0.19171429 1.5250001 6.4400903e-39
0.43135715 0.19316667 1.5250001 6.3504184e-39
0.45265874 0.19123016 1.5250001 7.0858436e-39
0.46766669 0.19461906 1.5250001 7.3617173e-39
0.47202384 0.19607145 1.5250001 7.5439547e-39
0.53302389 0.19461906 1.5250001 9.9363804e-39
0.54319048 0.19171429 1.5250001 1.0583195e-38
0.55626196 0.19026193 1.5250001 1.1042382e-38
0.56497622 0.19752383 1.5250001 1.0672164e-38
0.59589124 0.19482656 1.525 1.2512116e-38
0.60564291 0.19441159 1.5250002 1.2973806e-38
0.6114524 0.19316667 1.5250001 1.334367e-38
0.6375953 0.19171429 1.5250001 1.4540062e-38
0.64050001 0.19316667 1.5250001 1.4631546e-38
0.54609525 0.20769049 1.5250001 9.1062512e-39
0.55238891 0.20478573 1.5250001 9.6583572e-39
0.5664286 0.20623811 1.5250001 1.020937e-38
0.57627255 0.20510848 1.5250001 1.0945502e-38
0.58337307 0.20672224 1.5250001 1.1129171e-38
0.59729171 0.20514882 1.5250001 1.1867094e-38
0.60346437 0.20478572 1.5250001 1.2143681e-38
0.6375953 0.20478573 1.5250001 1.416876e-38
0.6437276 0.20543122 1.5250001 1.4355306e-38
0.49816668 0.21350001 1.5250001 3.3119157e-39
0.5056361 0.21557486 1.5250002 3.0363938e-39
0.51501435 0.21553333 1.525 3.2204291e-39
0.54754764 0.21495238 1.5250001 5.5177598e-39
0.55408335 0.2142262 1.5250001 5.0611257e-39
0.56570244 0.21277383 1.5250001 6.8103414e-39
0.57562703 0.21495239 1.5250001 5.9787632e-39
0.58530957 0.21495239 1.525 6.256083e-39
0.59537941 0.21524288 1.525 6.6230634e-39
0.60506195 0.21756668 1.5250001 5.5116544e-39
0.61477214 0.21557488 1.5250002 8.0031196e-39
0.62016672 0.21640478 1.5250001 7.8187284e-39
0.6375953 0.21059525 1.5250001 1.4448213e-38
0.64485717 0.21204764 1.5250001 1.3349426e-38
0.34711909 0.22802383 1.5250001 2.7579656e-39
0.48170638 0.22415082 1.5250001 2.5778987e-39
0.50724405 0.22548217 1.5250001 2.8526948e-39
0.51559526 0.22511907 1.5250001 2.393869e-39
0.52394646 0.22475597 1.5250001 2.0258152e-39
0.53767151 0.22570001 1.5250001 2.3013258e-39
0.54422796 0.22511905 1.5250002 2.393876e-39
0.55142069 0.22415081 1.5250001 2.4853598e-39
0.57576537 0.2247041 1.5250002 2.8534052e-39
0.58530962 0.22366667 1.5250001 2.9445387e-39
0.59402382 0.22366667 1.5250001 2.3031209e-39
0.61580956 0.22366667 1.5250001 1.6602738e-39
0.62307149 0.22594899 1.5250002 2.2109225e-39
0.63178575 0.22802383 1.5250001 2.2127259e-39
0.34711909 0.23092858 1.5250001 2.482815e-39
0.47550955 0.23267142 1.5250001 1.8428546e-39
0.48219049 0.23528571 1.5250001 1.2903843e-39
0.5257619 0.23238097 1.5250001 2.1183527e-39
0.53411317 0.23492262 1.5250001 1.6588151e-39
0.54173809 0.23528573 1.5250001 2.2105413e-39
0.61580956 0.23673812 1.5250001 2.2109211e-39
0.48219049 0.24254763 1.5250001 7.372021e-40
0.61580956 0.24254763 1.5250001 2.2083889e-39
-0.85254765 0.32969049 1.5250001 1.2993812e-38
-0.82204765 0.32969049 1.5250001 1.3819617e-38
-0.81575406 0.32872224 1.5250001 1.381961e-38
-0.80461907 0.32969049 1.5250001 1.4095842e-38
-0.79590476 0.32969049 1.5250001 1.4280236e-38
-0.78864294 0.32969049 1.5250001 1.4372079e-38
-0.77266669 0.32969049 1.5250001 1.4372428e-38
-0.6419524 0.32969049 1.5250001 1.6401816e-38
-0.61726195 0.32969049 1.5250001 1.2909169e-38
-0.85254765 0.33259526 1.5250001 1.4187316e-38
-0.84499532 0.33375716 1.5250001 1.3728133e-38
-0.83511913 0.33259526 1.5250001 1.3635941e-38
-0.82785714 0.33259526 1.5250001 1.3819622e-38
-0.81188101 0.33259526 1.5250001 1.4187316e-38
-0.7566905 0.33259526 1.5250001 1.5014928e-38
-0.64340484 0.33646831 1.5250001 1.6769531e-38
-0.63469052 0.33477384 1.5250001 1.6585858e-38
-0.62670243 0.33332145 1.5250001 1.6311069e-38
-0.61290479 0.33404765 1.5250001 4.8709835e-39
-0.60564291 0.33695239 1.5250001 1.1237409e-38
-0.59485376 0.3371599 1.5250002 1.5478425e-38
-0.58472866 0.3355 1.5250001 1.5570262e-38
-0.57514286 0.33404765 1.5250001 1.5570253e-38
-0.5664286 0.33550003 1.5250001 1.575428e-38
-0.55480957 0.33840477 1.5250001 1.5478425e-38
-0.54609525 0.33840477 1.5250001 1.5662089e-38
-0.53447628 0.33767858 1.5250001 1.5295107e-38
-0.52430958 0.33840477 1.5250001 1.5294762e-38
-0.51559532 0.33840477 1.5250001 1.547771e-38
-0.50542855 0.33840477 1.5250001 1.5386235e-38
-0.49526191 0.33840477 1.5250001 1.5570618e-38
-0.48582146 0.33767858 1.5250001 1.5294394e-38
-0.47347623 0.33550003 1.5250001 1.5295115e-38
-0.46040478 0.33550003 1.5250001 1.58454e-38
-0.45532143 0.3362262 1.5250001 1.5569887e-38
-0.44588098 0.33550003 1.5250001 1.5569536e-38
-0.43426192 0.33695239 1.5250001 1.5202202e-38
-0.42554766 0.33743653 1.5250001 1.5294036e-38
-0.4132024 0.33767858 1.5250001 1.4926691e-38
-0.40521431 0.33550006 1.5250001 1.4558628e-38
-0.39504766 0.33356354 1.5250001 1.4648665e-38
-0.38633335 0.33259526 1.5250001 1.446392e-38
-0.3761667 0.33550006 1.5250001 1.4002942e-38
-0.36454767 0.33453178 1.5250001 1.3449764e-38
-0.35873809 0.33550003 1.5250001 1.317353e-38
0.1951032 0.33743653 1.5250001 1.8986899e-38
0.20478573 0.33840477 1.5250001 1.9073703e-38
0.21495239 0.33840477 1.5250001 1.9074063e-38
0.24835716 0.33840477 1.5250001 1.9533595e-38
0.25561908 0.33550003 1.5250001 1.9165888e-38
0.26578575 0.33743653 1.5250001 1.9258446e-38
0.27450001 0.33840477 1.5250001 1.9258085e-38
0.28466669 0.33840477 1.5250001 1.8797473e-38
0.2954143 0.33724287 1.5250001 1.8613072e-38
0.30500001 0.33840477 1.5250001 1.8336136e-38
0.31516671 0.33743653 1.5250001 1.8152102e-38
0.32533336 0.33550003 1.5250001 1.7415616e-38
0.33695239 0.33550003 1.5250001 5.0517496e-39
0.34421429 0.33550003 1.5250001 1.1023861e-39
0.35873809 0.33550003 1.5250001 1.3744001e-38
0.36454764 0.33550003 1.5250001 1.6316829e-38
0.37326193 0.33550006 1.5250001 1.1506119e-38
0.48945242 0.33840477 1.5250001 1.0965903e-38
0.49671429 0.33840477 1.5250001 1.2074039e-38
0.51850003 0.33695239 1.5250001 1.5759337e-38
0.52430952 0.33550003 1.5250001 1.5848977e-38
0.53157151 0.33695239 1.5250001 1.4653255e-38
-0.51559532 0.34130955 1.5250001 1.5478072e-38
-0.50397623 0.34130955 1.5250001 1.5570269e-38
0.22511905 0.34276193 1.5250001 1.8984029e-38
0.23238096 0.34276193 1.5250001 1.741346e-38
0.24400002 0.34130955 1.5250001 1.6321517e-38
0.30645239 0.34130955 1.5250001 1.842833e-38
0.31226194 0.34130955 1.5250001 1.8245018e-38
0.48509529 0.34276193 1.5250001 7.1686184e-39
0.506881 0.34130955 1.5250001 7.3721051e-39
0.51559532 0.34130955 1.5250001 8.2926265e-39
0.52489048 0.34247145 1.5250001 5.9884798e-39
0.53157151 0.34130955 1.5250001 9.7742137e-39
0.71892864 0.34566671 1.5250001 6.7403619e-39
0.72473818 0.34421432 1.5250002 1.3368005e-38
0.73490477 0.3434881 1.5250001 1.7874799e-38
0.74579763 0.34348813 1.5250001 1.7966995e-38
0.75494766 0.34363335 1.5250001 1.8150311e-38
0.76250005 0.34566671 1.5250001 1.8427275e-38
0.77460325 0.34421432 1.5250001 1.8519088e-38
0.78573817 0.34421429 1.5250001 1.8152832e-38
0.79445243 0.34421429 1.5250001 1.8612004e-38
0.80026191 0.34421429 1.5250001 1.9529642e-38
0.71892864 0.35147619 1.5250001 1.4465369e-38
0.72280163 0.35099208 1.5250001 1.6037726e-38
0.43366498 -0.073009044 1.5331668 4.8885166e-39
0.43479621 -0.065657146 1.5320001 4.1391092e-39
0.37789336 -0.045230478 1.5320001 4.5143643e-39
0.37497526 -0.035017144 1.5320001 3.8686361e-39
0.37205714 -0.027721906 1.5320001 3.5927625e-39
0.58799618 -0.016049525 1.5320001 1.8059137e-38
0.36816639 -0.0034044448 1.5320001 2.1190646e-39
0.37497526 -0.0029180951 1.5320001 3.5916975e-39
0.38178417 -0.0024317461 1.5320001 4.2356124e-39
0.37636286 0.003745714 1.539 3.5002095e-39
0.3828505 0.004386032 1.5343335 4.053019e-39
0.43917334 0.004377143 1.5320001 1.4481205e-38
0.44355047 0.004377143 1.5320001 1.6772754e-38
0.36705762 0.017551906 1.5355 3.0399461e-39
0.37636289 0.016122857 1.539 3.8675543e-39
0.38440773 0.014851984 1.5337499 3.9611765e-39
0.39248383 0.013131429 1.5320001 4.1448601e-39
0.36655563 0.025993714 1.5334001 2.7615613e-39
0.37500206 0.024609439 1.5364546 3.7742867e-39
0.38392285 0.024817884 1.5327778 3.8690061e-39
0.36604312 0.032744359 1.5330002 2.3949298e-39
0.37555081 0.035070479 1.5343332 3.683526e-39
0.3831459 0.035017144 1.5319999 3.7767964e-39
0.39491558 0.036476195 1.5320001 3.5001997e-39
0.4053326 0.037144657 1.5327778 6.2816651e-39
0.41436952 0.037935242 1.5320001 2.0653648e-38
0.3574667 0.045230478 1.5320001 3.7656155e-39
0.36568019 0.045273148 1.5333999 2.4864107e-39
0.37592414 0.045343809 1.5358889 3.5906185e-39
0.38479066 0.045230478 1.5319999 3.5924038e-39
0.39499632 0.045251142 1.5326999 3.1310543e-39
0.40510917 0.04527181 1.5333999 6.10048e-39
0.41550288 0.045064002 1.5361999 2.1672813e-38
0.42438325 0.045566287 1.5333999 2.029346e-38
0.43292031 0.04606422 1.5320002 1.447615e-38
0.44209144 0.045230478 1.5320001 1.6398929e-38
0.36480477 0.055491816 1.5333999 2.3949326e-39
0.37522289 0.054231435 1.5389999 3.2229024e-39
0.38622522 0.054451857 1.5377272 3.4090831e-39
0.39530706 0.054733738 1.5325832 3.2221625e-39
0.40561527 0.05544382 1.5319998 9.2354607e-39
0.41436952 0.055443812 1.5320001 2.1579186e-38
0.42412224 0.054547545 1.5352306 2.1210749e-38
0.43513292 0.054433711 1.5319999 1.576219e-38
0.44209144 0.05836191 1.5320001 1.6401439e-38
0.5150438 0.051066671 1.5320001 1.7692544e-38
0.65803045 0.056902859 1.5320001 1.6115187e-38
0.66581208 0.056902863 1.5320001 1.6493279e-38
0.6735937 0.054957464 1.5320001 1.7689997e-38
0.36775145 0.065761589 1.5343335 2.578249e-39
0.37585104 0.064910203 1.5389999 3.2243429e-39
0.38606611 0.064866394 1.5379999 3.1339396e-39
0.39425328 0.064049624 1.5354999 3.5005585e-39
0.40496406 0.065931767 1.5335 1.0230527e-38
0.41541174 0.065240271 1.5320002 2.2499332e-38
0.42547169 0.064807616 1.5384614 2.0925156e-38
0.43595642 0.064705461 1.5371332 1.6673734e-38
0.44282097 0.066386662 1.5320001 1.6587275e-38
0.3574667 0.074411429 1.5320001 1.6534005e-39
0.36422655 0.074604765 1.5358889 2.4849632e-39
0.37522286 0.074751437 1.5389999 2.8559261e-39
0.38558519 0.074298277 1.5351818 3.4994879e-39
0.39456823 0.073994562 1.5320002 3.4994753e-39
0.40412593 0.074496433 1.5337499 8.6632223e-39
0.41582856 0.074411429 1.5320001 2.2036206e-38
0.42628205 0.07470727 1.538125 2.1100577e-38
0.4352971 0.074827634 1.5351818 1.6769885e-38
0.44291222 0.073493175 1.5331668 1.649937e-38
0.48294476 0.077329531 1.5320001 4.3214994e-39
0.52233905 0.077329531 1.5320001 1.0759663e-38
0.35714576 0.084522866 1.539 5.5175146e-40
0.36300859 0.087454289 1.539 2.4849716e-39
0.37668857 0.084611692 1.5389999 3.3147421e-39
0.3831459 0.08462476 1.5319999 3.4994879e-39
0.39686096 0.08316572 1.5320001 2.3916858e-39
0.40386444 0.084916577 1.5319999 9.4904634e-39
0.41582856 0.084624767 1.5319999 2.276477e-38
0.42541811 0.082491025 1.5350002 2.1926707e-38
0.43366492 0.082742691 1.5331668 1.695177e-38
0.44209144 0.080247618 1.5320001 1.6775961e-38
0.45084575 0.089001909 1.5320001 1.6213138e-38
0.46835431 0.089001909 1.5320001 1.7515708e-38
0.47419047 0.085719049 1.5320001 1.9356723e-38
0.48374066 0.085022688 1.5319999 9.9489248e-39
0.49461716 0.080247618 1.5320001 1.5451551e-38
0.52204722 0.082582094 1.5320001 1.0565582e-38
0.58541226 0.083213225 1.5328751 1.7053261e-38
0.59164381 0.083165713 1.5320001 1.0295046e-38
0.35519147 0.095271431 1.539 2.2969818e-39
0.36349714 0.095271423 1.539 2.3016537e-39
0.3759557 0.096004277 1.539 2.8559121e-39
0.38518858 0.094838105 1.5319999 3.314026e-39
0.39503145 0.094984762 1.5343335 3.3143721e-39
0.40507624 0.094693333 1.5355 1.3078106e-38
0.41483957 0.095679283 1.5337501 2.2912844e-38
0.42458287 0.097756192 1.5320001 2.126376e-38
0.43333718 0.097756192 1.5320001 1.6948195e-38
0.44355047 0.097756192 1.5320001 1.7048241e-38
0.45259663 0.096005343 1.5320001 1.7234438e-38
0.46689525 0.091920003 1.5320001 1.7056881e-38
0.47346097 0.094108582 1.5320001 1.9081229e-38
0.48197207 0.092892706 1.5320001 8.2926461e-39
0.58424443 0.094421238 1.5320002 1.7971988e-38
0.35504112 0.10474221 1.5389999 3.8642963e-39
0.36496285 0.10569429 1.539 1.932874e-39
0.37551606 0.10582458 1.5389999 2.9470316e-39
0.38579693 0.10515781 1.5384614 3.3147435e-39
0.39438063 0.10588936 1.5383636 3.3140232e-39
0.40424401 0.10582459 1.5389999 8.1078961e-39
0.41495478 0.10512242 1.537923 2.323221e-38
0.42431474 0.10557302 1.5352665 2.2293009e-38
0.43489772 0.10544057 1.5333999 1.6219246e-38
0.44500956 0.10505144 1.5319999 1.6128477e-38
0.45318022 0.10505142 1.5319999 1.7790485e-38
0.55443811 0.10942857 1.5320001 1.77905e-38
0.56465143 0.10796954 1.5320001 1.7509579e-38
0.58653712 0.10067429 1.5320001 1.6217421e-38
0.35421431 0.11579143 1.539 3.7656183e-39
0.36496288 0.11286001 1.539 3.1285347e-39
0.37668857 0.11286001 1.539 3.1314228e-39
0.38548288 0.11579143 1.539 3.314389e-39
0.39452067 0.11581612 1.5358181 2.6697356e-39
0.40504995 0.11539161 1.5375999 1.0136561e-38
0.41479713 0.11615787 1.539 2.2766582e-38
0.42489433 0.11574756 1.5384166 2.173841e-38
0.43512401 0.11535145 1.5331666 9.9334937e-39
0.44613847 0.11509583 1.5346251 9.5647014e-39
0.45339906 0.11490001 1.5320001 1.0209704e-38
0.4931581 0.11818286 1.5320001 1.380644e-38
0.50410098 0.11599429 1.5320001 1.6206346e-38
0.5142101 0.11568163 1.5320002 1.8970006e-38
0.55531353 0.1129303 1.5320001 1.732229e-38
0.56465143 0.11380573 1.5320001 1.5836042e-38
0.35812289 0.12654001 1.539 2.7804004e-40
0.3645964 0.12495215 1.539 1.5655391e-39
0.37082571 0.12751715 1.539 2.3942123e-39
0.38694859 0.12165429 1.539 3.405507e-39
0.39574283 0.12311999 1.539 2.7612208e-39
0.4041374 0.12485222 1.5389999 8.2022511e-39
0.41479716 0.12542328 1.5390002 2.3325854e-38
0.42652315 0.12471957 1.5366666 1.9988459e-38
0.43491915 0.12551351 1.5324373 1.0117553e-38
0.44474426 0.12508018 1.5319999 1.1505155e-38
0.45230478 0.1254781 1.5320001 1.1966496e-38
0.48683557 0.12499176 1.5320001 1.583406e-38
0.49510354 0.12693715 1.5320001 1.6201046e-38
0.5036633 0.12431085 1.5319999 1.8985901e-38
0.51329297 0.12343543 1.5320001 2.3142183e-38
0.69596577 0.12985525 1.5320001 2.341769e-38
0.3561686 0.13044858 1.539 9.2561369e-41
0.38841429 0.13924286 1.539 3.0377698e-39
0.39281142 0.13924286 1.539 2.2112798e-39
0.40684041 0.13589267 1.5390002 1.557972e-38
0.41506365 0.13497896 1.5389999 2.1111039e-38
0.42486936 0.13531509 1.537923 2.026904e-38
0.4351171 0.13565525 1.5345454 9.6554999e-39
0.44458401 0.13608603 1.5327778 1.122605e-38
0.45418072 0.13610831 1.5320002 1.1871066e-38
0.50580323 0.13666414 1.5320001 2.111319e-38
0.51358473 0.13715048 1.5320001 2.341769e-38
0.54714286 0.13860953 1.5320001 2.341769e-38
0.5546003 0.13601567 1.5320001 2.341769e-38
0.56367874 0.13471875 1.5320001 2.341769e-38
0.60550487 0.13860953 1.5320001 2.341769e-38
0.61425906 0.1371505 1.5320001 2.341769e-38
0.62155426 0.13860953 1.5320001 2.341769e-38
0.68507504 0.13730548 1.5337501 2.341769e-38
0.6941871 0.13573912 1.5325384 2.341769e-38
0.70296919 0.13569145 1.5320001 2.341769e-38
0.71347427 0.13860953 1.5320001 2.341769e-38
0.35763428 0.14583857 1.539 2.3913383e-39
0.39251828 0.14569201 1.539 2.393485e-39
0.40562451 0.14482288 1.5360001 1.5677303e-38
0.41516361 0.1447393 1.539 1.2720966e-38
0.42505717 0.1451057 1.5389999 1.5496845e-38
0.43531719 0.14510572 1.539 9.0090613e-39
0.44489717 0.14488795 1.5366666 1.0765789e-38
0.4552229 0.14444572 1.5319999 1.1320409e-38
0.46485257 0.14327848 1.5320001 1.2149455e-38
0.51698923 0.14250033 1.5320001 2.341769e-38
0.52541924 0.14476994 1.5320001 2.341769e-38
0.53547055 0.14736381 1.5320001 2.341769e-38
0.54505855 0.14486259 1.5320002 2.341769e-38
0.55381399 0.14480487 1.5326999 2.341769e-38
0.56611049 0.14444572 1.5320001 2.341769e-38
0.6064775 0.14250033 1.5320001 2.341769e-38
0.62398607 0.14541842 1.5320001 2.341769e-38
0.63322669 0.14736381 1.5320001 2.341769e-38
0.64441335 0.14710191 1.5343335 2.341769e-38
0.65219432 0.14736381 1.5320001 2.341769e-38
0.68623877 0.14250033 1.5320001 2.341769e-38
0.69596577 0.14444572 1.5320001 2.341769e-38
0.70355272 0.14561296 1.5320001 2.341769e-38
0.34737429 0.15536571 1.539 1.0782881e-38
0.35103858 0.15609857 1.539 7.1671526e-39
0.37082571 0.15976286 1.539 2.3020251e-39
0.39675355 0.15152976 1.53725 2.2092213e-39
0.40555289 0.1546106 1.5340587 1.595098e-38
0.41508037 0.15492487 1.5346251 1.6870377e-38
0.42505714 0.15536572 1.5389998 1.8068942e-38
0.43561378 0.15564807 1.5384614 7.7240776e-39
0.44546366 0.15492722 1.5375999 1.0030741e-38
0.45614246 0.15163063 1.5330002 1.0769033e-38
0.52671617 0.15429428 1.5320001 2.341769e-38
0.53476673 0.15327629 1.5327778 2.341769e-38
0.54409963 0.15172872 1.5340002 2.341769e-38
0.55339795 0.15185541 1.5331668 2.341769e-38
0.56611049 0.15320002 1.5320001 2.341769e-38
0.57608068 0.15490225 1.5319999 2.341769e-38
0.58216 0.15465905 1.5320001 2.341769e-38
0.60745025 0.15709081 1.5320001 2.341769e-38
0.62447238 0.15028191 1.5320001 2.341769e-38
0.63517207 0.1532 1.5320001 2.341769e-38
0.64519417 0.1543567 1.5338665 2.341769e-38
0.65511245 0.15695184 1.5320002 2.341769e-38
0.66094857 0.15903619 1.5320001 2.341769e-38
0.69596577 0.15028191 1.5320001 2.341769e-38
0.70472002 0.15028191 1.5320001 2.341769e-38
0.71347427 0.15028191 1.5320001 2.341769e-38
0.35030574 0.16269429 1.539 7.0753157e-39
0.39544973 0.16679829 1.539 8.2843224e-40
0.4048954 0.16513366 1.5366666 1.973207e-38
0.41492775 0.16589965 1.538125 2.341769e-38
0.42545688 0.16535921 1.5389999 2.055424e-38
0.43547711 0.16501682 1.5358181 6.4387282e-39
0.44542646 0.16403866 1.5320002 9.0194604e-39
0.45084575 0.16779049 1.5320001 8.7435839e-39
0.48440382 0.16779049 1.5320001 1.0032896e-38
0.49461716 0.1677905 1.5320001 9.7437986e-39
0.50556004 0.16706096 1.5320001 2.1026014e-38
0.52477086 0.16681778 1.5320001 2.341769e-38
0.53838861 0.16779049 1.5320001 2.341769e-38
0.56465143 0.16195428 1.5320001 2.341769e-38
0.57340574 0.16195428 1.5320001 2.341769e-38
0.58216 0.16195428 1.5320001 2.341769e-38
0.59660953 0.16635397 1.5366668 2.341769e-38
0.60580772 0.16552465 1.5346251 2.341769e-38
0.61248058 0.16677658 1.5334001 2.341769e-38
0.64552444 0.16320491 1.5320002 2.341769e-38
0.65552932 0.16403864 1.5320002 2.341769e-38
0.66532576 0.16487241 1.5319999 2.341769e-38
-0.21448001 0.17946288 1.5320001 1.6219232e-38
-0.20572571 0.17946288 1.5320001 1.6127049e-38
-0.11380573 0.17946286 1.5320001 1.4651908e-38
-0.10796952 0.17946286 1.5320001 1.4743369e-38
0.39464355 0.17442001 1.539 1.2882823e-39
0.40493688 0.17415349 1.5389999 1.6143662e-38
0.41395962 0.17442001 1.5390002 2.2129841e-38
0.42652321 0.17447682 1.5366666 1.6123832e-38
0.43374419 0.17442119 1.5325832 5.4288755e-39
0.44617677 0.17245941 1.5320001 8.0982117e-39
0.45532015 0.17479391 1.5319999 8.1893284e-39
0.46507144 0.17690955 1.5320001 8.3733651e-39
0.47467685 0.17605841 1.5320001 8.925827e-39
0.4840391 0.17508572 1.5320001 9.6644696e-39
0.49413082 0.17459938 1.5320001 9.3814676e-39
0.50658143 0.1742103 1.5319999 2.0092232e-38
0.51650286 0.17654477 1.5320001 2.3417682e-38
0.52561235 0.17479992 1.5337499 2.1936122e-38
0.53571236 0.17455785 1.5337501 2.3417689e-38
0.54276574 0.17946286 1.5320001 1.558979e-38
0.57413524 0.17873333 1.5320001 1.8825915e-38
0.58799618 0.17946286 1.5320001 1.7632054e-38
0.59538096 0.17616245 1.5360001 2.1029967e-38
0.60581577 0.17559572 1.5364999 2.2315664e-38
0.61241794 0.17408893 1.5328751 2.2774842e-38
0.64052194 0.17946286 1.5320001 2.057079e-38
0.65657139 0.17070857 1.5320001 2.341769e-38
0.6653257 0.17070857 1.5320001 2.341769e-38
-0.26542714 0.18206476 1.5355 1.6679486e-38
-0.25610667 0.18293652 1.5366668 1.6679139e-38
-0.24451622 0.1816816 1.5343335 1.6862805e-38
-0.23451428 0.18028285 1.539 1.6587655e-38
-0.22450519 0.18148178 1.5350002 1.6495103e-38
-0.20080286 0.18028285 1.539 1.6310725e-38
-0.19414125 0.1820177 1.5360001 1.6310356e-38
-0.18530542 0.18266714 1.5368999 1.6126321e-38
-0.1751193 0.18352547 1.5355 1.5941929e-38
-0.16524905 0.18425667 1.5355 1.5850091e-38
-0.15501237 0.18425667 1.5355 1.5574225e-38
-0.14542533 0.18404818 1.5362 1.5481307e-38
-0.13652572 0.18154171 1.5348001 1.5296197e-38
-0.1259031 0.18080737 1.53725 1.4836657e-38
-0.11872286 0.18028285 1.539 1.4744464e-38
-0.10260001 0.18028285 1.539 1.455935e-38
-0.095054768 0.1813319 1.5355 1.4467878e-38
-0.084818095 0.1813319 1.5355 1.4650832e-38
-0.074496433 0.18404834 1.5337501 1.483522e-38
-0.068575241 0.18529905 1.5320001 1.4835935e-38
0.027848572 0.18614571 1.539 2.3325853e-38
0.034435652 0.18386967 1.5340002 2.1107029e-38
0.043971427 0.18321428 1.539 1.7603605e-38
0.055560477 0.18425667 1.5355 1.8063871e-38
0.064879999 0.18390921 1.5366668 1.8340098e-38
0.074603818 0.18201767 1.5360001 1.8156431e-38
0.084106125 0.18219838 1.5340002 1.8156068e-38
0.094108582 0.18311048 1.5320001 1.8156076e-38
0.10505143 0.18238096 1.5320001 1.8156429e-38
0.11595639 0.18371487 1.5334001 1.797347e-38
0.12509565 0.1844056 1.5350002 1.8064947e-38
0.13520817 0.18661471 1.5360001 1.8340095e-38
0.14510572 0.18614571 1.539 1.815678e-38
0.15502238 0.18425667 1.5355 1.7324853e-38
0.16416 0.18321428 1.539 1.5390552e-38
0.37962002 0.18907715 1.539 2.4860632e-39
0.38646001 0.18419144 1.539 2.579691e-39
0.39464355 0.18284786 1.539 1.9332762e-39
0.40502572 0.18125999 1.539 8.0326408e-39
0.41491175 0.18442306 1.5382222 8.8430075e-39
0.42367655 0.18464315 1.5366666 6.8107393e-39
0.43519416 0.18503375 1.5319999 7.3620606e-39
0.44600931 0.18637852 1.5340002 7.1776679e-39
0.45522285 0.18529907 1.5319999 7.4539073e-39
0.46507144 0.18493429 1.5320001 7.9141736e-39
0.47535428 0.18505143 1.5347999 8.2829645e-39
0.48462912 0.18543191 1.5354999 8.9261843e-39
0.49478149 0.18602979 1.5358181 9.2946179e-39
0.50483054 0.18529904 1.5319999 8.1879523e-39
0.51462698 0.18446532 1.5320002 7.8166825e-39
0.52585417 0.18556771 1.5364546 9.5662162e-39
0.53498393 0.18439889 1.5357691 1.0397063e-38
0.54212666 0.1846019 1.5343335 1.0305945e-38
0.55006099 0.18821715 1.5320001 1.1415817e-38
0.56756949 0.18821715 1.5320001 1.1959668e-38
0.57423949 0.1861328 1.5320002 1.1588392e-38
0.58497226 0.186224 1.5347999 1.1864264e-38
0.59477323 0.18592653 1.5331668 1.25046e-38
0.60550481 0.18311049 1.5320001 1.3432319e-38
0.6412515 0.18602857 1.5320001 1.5642127e-38
0.65803045 0.18238096 1.5320001 2.165989e-38
0.66094857 0.18238096 1.5320001 2.1941495e-38
0.35030574 0.19494002 1.539 3.3118498e-39
0.41655603 0.1955263 1.539 1.9280788e-38
0.42333275 0.19525099 1.5351818 1.1328966e-38
0.43625528 0.19492877 1.5319999 6.4411777e-39
0.44500953 0.19551238 1.5319999 6.7166912e-39
0.45546603 0.19599873 1.5319999 6.9007293e-39
0.46397716 0.1955124 1.5320001 7.2695174e-39
0.47652498 0.19463696 1.5320001 7.8205416e-39
0.48309883 0.1934181 1.5362 8.096774e-39
0.49514222 0.19171748 1.5366668 8.8336342e-39
0.50580323 0.19210795 1.5320001 9.2942536e-39
0.51540858 0.19368857 1.5320001 9.386445e-39
0.52614623 0.19470996 1.5336154 9.7530779e-39
0.5363043 0.19530395 1.5320002 1.0029651e-38
0.5442248 0.19632296 1.5320001 9.9367461e-39
0.55370861 0.19478287 1.5320001 1.0490639e-38
0.5640313 0.19560239 1.5326999 1.0764722e-38
0.57194662 0.19551237 1.5320001 1.1224619e-38
0.5967505 0.19697143 1.5320001 1.2419201e-38
0.60745019 0.19308065 1.5320001 1.3067076e-38
0.36789429 0.20666572 1.539 2.8526695e-39
0.37585106 0.20792207 1.5390002 2.4856975e-39
0.38617 0.20748399 1.5378335 2.487138e-39
0.39500999 0.2088643 1.539 2.3013272e-39
0.41521591 0.20582817 1.5390002 1.088498e-38
0.424831 0.2054296 1.5385332 8.1961401e-39
0.43586808 0.20548353 1.5379999 5.8879997e-39
0.44543725 0.20589991 1.5354999 5.7965243e-39
0.45508206 0.20514953 1.5331666 6.0727553e-39
0.46548653 0.20630352 1.5340999 6.2571592e-39
0.47467497 0.20593609 1.5335556 6.5333929e-39
0.48468435 0.20551309 1.5383636 6.9014566e-39
0.49101427 0.20959716 1.539 6.3493674e-39
0.51528329 0.20570076 1.5362 7.6368776e-39
0.52559364 0.20449272 1.537923 8.4634055e-39
0.53561687 0.20630352 1.5340999 8.5559473e-39
0.54386002 0.20536095 1.5320001 9.0158562e-39
0.55483902 0.20463173 1.5335556 9.6587173e-39
0.56406778 0.20630935 1.5320001 9.934228e-39
0.57340574 0.2042667 1.5320001 1.0669638e-38
0.5870235 0.20378034 1.5320001 1.1405764e-38
0.59299874 0.20530885 1.5320002 1.1590152e-38
0.37815428 0.21399428 1.539 2.7597845e-39
0.38489845 0.21513335 1.5366666 2.3938746e-39
