# .PCD v0.7 - Point Cloud Data file format
VERSION 0.7
FIELDS x y z rgba
SIZE 4 4 4 4
TYPE F F F U
COUNT 1 1 1 1
WIDTH 1154
HEIGHT 1
VIEWPOINT 0 0 0 1 0 0 0
POINTS 1154
DATA ascii
-0.17651656 -0.37350687 1.4148 7099221
-0.16821429 -0.37276289 1.4130001 7100504
-0.18427715 -0.36517572 1.4175 8151643
-0.17555714 -0.36538288 1.4136001 7034457
-0.16642001 -0.36558574 1.4130001 7428962
-0.183745 -0.35467428 1.416 7427153
-0.17808287 -0.35616574 1.4130001 7230550
-0.19055143 -0.34191144 1.419 8876133
-0.1848384 -0.3449775 1.4143335 7296084
-0.19257857 -0.33515429 1.419 8875367
-0.18671787 -0.33474648 1.4130001 7558484
-0.21487714 -0.32434288 1.419 7765136
-0.19384515 -0.32432744 1.4154001 8809316
-0.18974572 -0.32970002 1.4130001 7561050
-0.20136285 -0.31218001 1.419 10782848
-0.19533858 -0.31489357 1.4145001 9006695
-0.20355795 -0.30350327 1.4181429 10585475
-0.19782001 -0.3054772 1.4130001 9335412
-0.2048429 -0.29445386 1.415 10585472
-0.2044566 -0.28526345 1.4142003 10124410
-0.19782001 -0.28663716 1.4130001 7951443
-0.22478764 -0.27298859 1.419 11703700
-0.21397619 -0.27343905 1.419 11308938
-0.20615999 -0.27622285 1.4148 9862267
-0.23379713 -0.26623142 1.419 12031643
-0.22514801 -0.26515028 1.4189999 11835032
-0.21570089 -0.26503631 1.4148463 11309196
-0.20858572 -0.26510572 1.4130001 10124423
-0.23379713 -0.25001431 1.419 12427186
-0.22527276 -0.25375667 1.4189999 12296363
-0.21534728 -0.25556135 1.4138002 11374991
-0.20858572 -0.25568572 1.4130001 9399925
-0.24427074 -0.24427073 1.4189999 11902126
-0.23533739 -0.24417588 1.417909 12427702
-0.22568856 -0.2446086 1.4189999 12362933
-0.21531431 -0.24492002 1.4130002 11177615
-0.25136572 -0.23244572 1.419 10913439
-0.24417858 -0.23473763 1.4165 11966892
-0.23471537 -0.23471537 1.4163752 12755896
-0.22491635 -0.23476246 1.419 12361902
-0.21486902 -0.23467919 1.4138573 10191232
-0.26082572 -0.22028287 1.419 11110815
-0.25524414 -0.22436479 1.4163333 11045273
-0.24513203 -0.22409698 1.4158002 12164529
-0.23483893 -0.22403607 1.4171251 12822200
-0.22411829 -0.22447945 1.4182001 12032679
-0.21442002 -0.22485501 1.4137501 9335660
-0.26217717 -0.21487713 1.419 11506853
-0.25409535 -0.21494731 1.4130001 11507107
-0.24578574 -0.21487275 1.4162308 12362419
-0.23514859 -0.21487716 1.4189999 12757180
-0.22483087 -0.21459773 1.4136002 12098986
-0.21755716 -0.21621144 1.4130001 9927541
-0.27163714 -0.20136285 1.419 11506084
-0.26397908 -0.2045162 1.4189999 11572646
-0.25434002 -0.20454858 1.4130001 12032943
-0.24524108 -0.2048225 1.414875 12494008
-0.2350875 -0.20536391 1.4186251 12888510
-0.224979 -0.2049156 1.4130001 11900832
-0.21935144 -0.20858572 1.4130001 10060409
-0.2736643 -0.19122714 1.419 11441572
-0.26584971 -0.19533488 1.4183999 11638183
-0.2553187 -0.1948839 1.4130001 12032688
-0.24492005 -0.19512859 1.4130001 12559802
-0.2348147 -0.19535276 1.4176155 12954301
-0.22608003 -0.19512859 1.4130001 11834775
-0.27532291 -0.1849 1.4189999 11573159
-0.26547816 -0.18576859 1.4162728 11901101
-0.25568575 -0.18570858 1.4130001 12296116
-0.24492002 -0.18570857 1.4130001 12691388
-0.23424402 -0.18543942 1.4130002 12822969
-0.22588779 -0.18705431 1.4130002 11046027
-0.32028857 -0.1756857 1.419 11112352
-0.29326004 -0.17433429 1.419 11507367
-0.28515145 -0.17399643 1.4189999 11177884
-0.27547467 -0.17554821 1.4178751 11507111
-0.26548284 -0.17519429 1.415 12033454
-0.25568572 -0.1749429 1.4130001 12493495
-0.24492002 -0.1749429 1.4130001 12953534
-0.23415431 -0.17494285 1.4130001 12756912
-0.30531892 -0.16456242 1.4189999 11638954
-0.29367584 -0.16497825 1.4189999 11440549
-0.2849524 -0.16475999 1.418 11243685
-0.27496502 -0.16444287 1.4152501 11440805
-0.26510572 -0.16417716 1.4130001 12099504
-0.25568572 -0.16417716 1.4130001 12559546
-0.24492003 -0.16417716 1.4130001 12954303
-0.23473105 -0.16456166 1.4130002 12493485
-0.3202886 -0.15271142 1.419 11901101
-0.31218001 -0.15541428 1.419 11769772
-0.30469519 -0.15458265 1.4189999 11835308
-0.29350573 -0.15443142 1.4189999 11703722
-0.28448415 -0.15505178 1.4156667 11572133
-0.27452573 -0.15475716 1.4130001 11703975
-0.26510575 -0.15475716 1.4130001 12230578
-0.25568575 -0.15475717 1.4130001 12560059
-0.24492002 -0.15475717 1.4130001 12954049
-0.23583645 -0.15509358 1.4130001 12362408
-0.32299146 -0.144265 1.4189999 11901099
-0.31488287 -0.14298116 1.419 11704490
-0.30482155 -0.14424807 1.417909 11835561
-0.29554573 -0.14440286 1.4169999 11769772
-0.2852914 -0.14533716 1.4130001 11770028
-0.27452573 -0.14533716 1.4130001 11967404
-0.26510575 -0.14533716 1.4130001 12427700
-0.25607023 -0.14552939 1.4130002 12691132
-0.24440245 -0.14585474 1.4130001 12954561
-0.2372943 -0.14847717 1.4130001 12691367
-0.32456812 -0.13491763 1.4189999 11770541
-0.31546164 -0.13467674 1.4181429 11967149
-0.30470109 -0.13482322 1.4156251 11967149
-0.29471144 -0.13457143 1.4130001 12032684
-0.28529143 -0.13457145 1.4130001 11704490
-0.27545738 -0.134882 1.4130001 12098482
-0.26376003 -0.13860859 1.4130001 12558776
-0.25549349 -0.13418695 1.4130002 12691645
-0.24559288 -0.13345 1.4130001 12954814
-0.3329019 -0.12117809 1.419 11770286
-0.32581589 -0.12465273 1.4184545 11836332
-0.31569317 -0.12449544 1.4178001 11901871
-0.30526075 -0.12426428 1.4182501 11836080
-0.29510686 -0.12466401 1.4136001 12032944
-0.28582975 -0.12568973 1.4130001 11967154
-0.27587146 -0.12784287 1.4130001 12164789
-0.26331148 -0.1242543 1.4130001 12559546
-0.25568572 -0.12515146 1.4130001 12822718
-0.24492002 -0.12515146 1.4130001 12889270
-0.33434343 -0.11460114 1.4189999 11573674
-0.32432574 -0.11502001 1.4142002 11835563
-0.31531012 -0.11483803 1.4134617 11967152
-0.30413145 -0.11438572 1.4130001 11902129
-0.29446676 -0.11536443 1.4130001 12033200
-0.28723526 -0.11588095 1.4130001 12033711
-0.26356781 -0.11630818 1.4130002 12625341
-0.25568572 -0.11573144 1.4130001 12954049
-0.24530451 -0.11630818 1.4130002 12691118
-0.34407374 -0.10487087 1.4189999 11770539
-0.33565474 -0.10558704 1.4171538 11836077
-0.32566291 -0.10458123 1.4130002 11901871
-0.31330678 -0.10459871 1.4130001 11901873
-0.30413142 -0.10496571 1.4130001 11901873
-0.29471144 -0.10496572 1.4130001 11967665
-0.28817511 -0.10554246 1.4130002 12164785
-0.25487828 -0.10846459 1.4130001 12954562
-0.24761145 -0.10765715 1.4130001 12953781
-0.35137144 -0.093248576 1.419 11836593
-0.34449384 -0.094568104 1.4184999 11967408
-0.33543956 -0.094302386 1.4145001 11967408
-0.32676393 -0.095301047 1.4130001 12098483
-0.31355146 -0.094200015 1.4130001 11836080
-0.30413142 -0.0942 1.4130001 11967664
-0.29650575 -0.095097147 1.4130001 12033202
-0.28663716 -0.094872862 1.4130001 12033716
-0.3729943 -0.083788574 1.419 11638956
-0.36533618 -0.084839687 1.4189999 11573421
-0.3544724 -0.085023813 1.4170001 11376303
-0.34442517 -0.084694296 1.4160001 11507885
-0.33541933 -0.085116431 1.4130001 11704751
-0.32970002 -0.086125717 1.4130001 11902130
-0.31321502 -0.085116431 1.4130001 11639474
-0.3048043 -0.086798579 1.4130001 11442347
-0.37338367 -0.075167537 1.4162728 11573168
-0.36481857 -0.075388104 1.4135002 11704496
-0.35545504 -0.07540144 1.4137501 11507112
-0.34507963 -0.075744502 1.4130002 11309222
-0.33642858 -0.078051433 1.4130001 10718625
-0.31355146 -0.075360008 1.4130001 11638447
-0.30682287 -0.075360008 1.4130001 11507116
-0.37408382 -0.06482096 1.418 11506860
-0.36468861 -0.064594291 1.4130001 11572652
-0.35526863 -0.064402044 1.4130002 11375789
-0.34674573 -0.065042868 1.4130001 11441321
-0.31489718 -0.065940008 1.4130001 11901617
-0.37344477 -0.054507617 1.4189999 11375530
-0.36584997 -0.053995714 1.4174999 11310246
-0.3552686 -0.055174287 1.4130001 11310506
-0.34746346 -0.055174291 1.4130001 11507625
-0.3144486 -0.055174291 1.4130001 11507117
-0.3729943 -0.0473 1.419 11310248
-0.36488569 -0.044597145 1.4189999 11309990
-0.35468462 -0.046110112 1.4143846 11244453
-0.34584862 -0.045754291 1.4130001 11047336
-0.31489718 -0.045754287 1.4130001 11573423
-0.3729943 -0.033785712 1.419 11178409
-0.36498839 -0.035373848 1.4157693 11244201
-0.35510042 -0.034730483 1.4134002 10915750
-0.3476429 -0.035885721 1.4130001 11243686
-0.37380514 -0.023785142 1.4189999 11112357
-0.36572477 -0.02429143 1.4170001 11112617
-0.35721245 -0.024073333 1.4130001 11178153
-0.31624287 -0.020185716 1.4130001 11375788
-0.37272403 -0.015406285 1.419 10718625
-0.36623716 -0.014865715 1.4189999 10850212
-0.35796008 -0.014802858 1.4130001 10915235
-0.31624287 -0.014802858 1.4130001 11243945
-0.37164289 -0.006757143 1.419 10388377
-0.36623716 -0.0054057143 1.4189999 10519444
-0.35661435 -0.0045264931 1.4130001 10454170
-0.34854004 -0.0013457143 1.4130001 10257561
-0.36443523 0.0055558733 1.4189999 11177881
-0.35520059 0.0052977144 1.4138002 11177367
-0.34531033 0.0069977152 1.4130001 11242901
-0.33777431 0.0094200009 1.4130001 11243160
-0.36276206 0.015251838 1.419 11112085
-0.3549248 0.014840954 1.4170001 11242644
-0.3445029 0.01480286 1.4130001 11177367
-0.33585188 0.015187349 1.4130002 11046549
-0.3741 0.024694288 1.4189999 10914964
-0.36572289 0.024287619 1.4170001 10914962
-0.35526863 0.024222858 1.4130001 10980500
-0.34495148 0.023325717 1.4130001 10980243
-0.33508286 0.024222856 1.4130001 10914706
-0.32970002 0.024222858 1.4130001 10849170
-0.31516629 0.024492001 1.4130001 10849424
-0.30547717 0.025568573 1.4130001 10914451
-0.37434572 0.035137147 1.4189999 10783119
-0.3652086 0.035038099 1.4150002 10651791
-0.3552686 0.034988578 1.4130001 10651791
-0.34046572 0.033642862 1.4130001 10652047
-0.33568096 0.033941906 1.4130001 10586255
-0.31379613 0.035355587 1.4130001 10323595
-0.3068229 0.036334291 1.4130001 10454412
-0.37400785 0.044259287 1.4189999 10782604
-0.36623713 0.044597145 1.4189999 10520201
-0.35499945 0.045485154 1.4130002 10322821
-0.3445029 0.045754291 1.4130001 10190981
-0.33777434 0.045305721 1.4130001 10059653
-0.31408975 0.045215998 1.4130001 9205369
-0.30749571 0.043735716 1.4130001 9468801
-0.28260002 0.044408575 1.4130001 6903907
-0.27818573 0.04513143 1.4145001 7100000
-0.37496948 0.05436901 1.4189999 8813185
-0.36488572 0.054057151 1.419 9732223
-0.35409111 0.055201586 1.4136667 9535356
-0.34652144 0.055847146 1.4130001 9599350
-0.31489718 0.052482858 1.4130001 8282723
-0.30816859 0.052482858 1.4130001 8346453
-0.37341431 0.063075714 1.41675 7034473
-0.36464286 0.062401433 1.41675 6705761
-0.35542002 0.063274287 1.4136001 6771807
-0.34746346 0.063248575 1.4130001 8744300
-0.31086001 0.076705724 1.4130001 9270125
-0.35325003 0.094872862 1.4130001 8481904
-0.3552686 0.10092857 1.4130001 7955826
-0.37410861 0.14937431 1.4130001 5586497
-0.38083717 0.15744859 1.4130001 5325108
-0.3737416 0.15500183 1.4130001 5850442
-0.36648291 0.15386002 1.4130001 7101275
-0.36468861 0.20589429 1.4130001 8086106
-0.51759714 0.25812283 1.419 4402988
-0.78247714 0.26533049 1.419 3615803
-0.7773717 0.26593107 1.4189999 3616052
-0.76490855 0.26893428 1.419 3616053
-0.7540971 0.26893428 1.419 3747126
-0.7419343 0.26893428 1.419 3748148
-0.73517716 0.26893428 1.419 3878709
-0.72706854 0.26893428 1.419 4076344
-0.51219147 0.26758283 1.419 4206372
-0.78518003 0.27569145 1.4189999 3418672
-0.77572 0.27569145 1.419 3484209
-0.76490861 0.27569145 1.419 3484204
-0.75418717 0.27578157 1.419 3419187
-0.74453092 0.27531627 1.4176155 3484467
-0.73378587 0.27479869 1.4158002 3615797
-0.72514194 0.27552336 1.4170001 3681076
-0.71521205 0.2764886 1.4148 3812405
-0.70784581 0.27587143 1.4130001 3877940
-0.69427031 0.27765089 1.4166001 3747381
-0.68563038 0.27873203 1.4166001 3878963
-0.67571425 0.27974573 1.419 4010037
-0.66625434 0.27974576 1.419 4206391
-0.51273149 0.27459908 1.4180001 4469032
-0.5071553 0.27581525 1.4150002 3745314
-0.48272058 0.27657431 1.4166001 2956309
-0.47975716 0.27163714 1.419 3022359
-0.45407999 0.27704287 1.419 4008222
-0.44462001 0.27839428 1.419 3942685
-0.43741238 0.27884477 1.419 4073758
-0.80139714 0.28785428 1.419 3220778
-0.79599142 0.28515142 1.4189999 3024683
-0.78517997 0.28515142 1.4189999 3089965
-0.77572006 0.28515139 1.4189999 3090221
-0.76571953 0.28488114 1.4189999 3090218
-0.75604546 0.28506517 1.4173636 3090476
-0.74657243 0.28574002 1.4130001 3024430
-0.7346704 0.28538117 1.4130002 3090735
-0.72601289 0.28428218 1.4130001 3221808
-0.71793866 0.28394574 1.4130001 3418674
-0.6822772 0.28125429 1.4130001 3551535
-0.67554861 0.28125429 1.4130001 3747378
-0.66434574 0.28258318 1.4136667 3877937
-0.65593547 0.28334689 1.4154001 3878708
-0.64728862 0.28484291 1.4130001 3878454
-0.51110864 0.28589144 1.4160001 4271650
-0.50733435 0.28529143 1.4130001 3745312
-0.48503432 0.28365144 1.4160001 2628379
-0.46083713 0.28785428 1.419 4337187
-0.45326915 0.28677318 1.419 4337184
-0.44462004 0.28515142 1.4189999 4205598
-0.43684927 0.28548929 1.4189999 4467487
-0.82211912 0.29686382 1.419 4666417
-0.8118372 0.29668286 1.4160001 4666672
-0.80544466 0.29348242 1.418077 3878189
-0.79540521 0.29515794 1.4186002 3811629
-0.78542572 0.29424286 1.4189999 3220271
-0.77571994 0.29461142 1.419 2892329
-0.76491106 0.29409194 1.4165 3023144
-0.75528294 0.2939561 1.4140911 2957866
-0.74956292 0.29336572 1.4130001 2826282
-0.63246858 0.29055715 1.419 3942961
-0.62435997 0.29190856 1.419 3943214
-0.61585814 0.29243335 1.4150002 3943723
-0.60679144 0.2986657 1.419 3680044
-0.52300286 0.29326001 1.419 5388594
-0.5146907 0.29531357 1.4175 4468770
-0.50733435 0.29336572 1.4130001 3415578
-0.49056855 0.2986657 1.419 2823447
-0.48786575 0.29190856 1.419 2692884
-0.46263906 0.29506192 1.4189999 4599074
-0.45407999 0.29461139 1.419 4599329
-0.44415098 0.29429761 1.4175 4796190
-0.43594572 0.29439887 1.4154 4665383
-0.4292829 0.29605716 1.4130001 5584436
-0.39698574 0.29471144 1.4130001 6703169
-0.79252857 0.30357432 1.41825 4272178
-0.78518003 0.3054229 1.4189999 3746862
-0.77555376 0.30497888 1.4182001 3746603
-0.76615262 0.30462173 1.4177999 3352359
-0.75494576 0.30009431 1.4130001 3023147
-0.60138571 0.30136859 1.419 3351085
-0.59507906 0.30136859 1.419 3614508
-0.5813486 0.30278572 1.4130001 3418154
-0.57731146 0.30278572 1.4130001 3418155
-0.5662486 0.30407143 1.419 3614248
-0.55195153 0.30904096 1.4170002 3350565
-0.54597712 0.30947715 1.419 3350308
-0.53381431 0.30947715 1.419 3153440
-0.52345335 0.3085762 1.419 2825503
-0.51550412 0.30467391 1.4164288 3483163
-0.49118575 0.30547717 1.4130001 2496266
-0.48687527 0.30484161 1.4170001 2562063
-0.47795528 0.3031705 1.419 3745562
-0.46323967 0.30407149 1.4189999 4599589
-0.45422271 0.30506617 1.4186002 4665124
-0.44431189 0.30523497 1.4166924 4927522
-0.43921432 0.30587336 1.419 5058344
-0.39878005 0.30368289 1.4130001 6704191
-0.76705718 0.31086001 1.4130001 2426903
-0.74148864 0.31489718 1.4130001 2298904
-0.73879719 0.31355146 1.4130001 1509141
-0.72166288 0.31758571 1.419 1770772
-0.71423489 0.315972 1.4166001 1574412
-0.70614004 0.315972 1.4166001 1246729
-0.54424143 0.31119001 1.4145001 3153697
-0.53566498 0.31303215 1.4167501 3021852
-0.5252046 0.31296369 1.4155716 2955548
-0.51675433 0.31086001 1.4130001 2561558
-0.48334476 0.31489241 1.4150002 2561294
-0.47975716 0.31488287 1.419 3351064
-0.4621886 0.31488287 1.419 4402723
-0.45361325 0.31477121 1.4140911 4599076
-0.44424146 0.31411096 1.4135002 4730919
-0.43831334 0.31398195 1.419 5254957
-0.71490568 0.3202886 1.419 3155220
-0.70544577 0.32028857 1.419 2823694
-0.47570649 0.32567856 1.416 2627085
-0.46275717 0.32591146 1.4180001 4007204
-0.45424521 0.32523003 1.4160001 5258549
-0.44354573 0.32327145 1.4136668 5851208
-0.43921429 0.32164001 1.419 5980744
-0.47234574 0.33239144 1.4130001 2497306
-0.46599358 0.33227503 1.41825 3877164
-0.45362955 0.33109999 1.419 6181705
-0.14792858 -0.54557145 1.4250001 7232592
-0.15064286 -0.53200006 1.4250001 7361361
-0.14792858 -0.53607148 1.4250001 6575444
-0.15064286 -0.52521431 1.4250001 7361872
-0.15267858 -0.51571429 1.4250001 6969165
-0.15403572 -0.50485718 1.4250001 6705740
-0.16150001 -0.49264288 1.4250001 8348251
-0.15715715 -0.49481431 1.4250001 7165773
-0.16150001 -0.48585719 1.4250001 8018515
-0.15878572 -0.4899286 1.4250001 7167060
-0.16285715 -0.47409523 1.4250001 7821909
-0.16537756 -0.46472454 1.4250001 7822167
-0.17235714 -0.45328575 1.4250001 9793652
-0.1689643 -0.45532146 1.4250001 8677984
-0.17235714 -0.44514287 1.4250001 8940136
-0.17416668 -0.43519053 1.4250001 8941409
-0.17575 -0.42478573 1.4250001 8876131
-0.1767 -0.41718575 1.4250001 8480355
-0.18185714 -0.4017143 1.4250001 9532273
-0.18755715 -0.39547142 1.4250001 10848901
-0.20764287 -0.38407144 1.4250001 1901882
-0.1938 -0.38461432 1.4250001 11571604
-0.18796429 -0.38610718 1.4250001 10585467
-0.20357144 -0.3732143 1.4250001 9996689
-0.19678573 -0.37592858 1.4250001 11899291
-0.18864286 -0.37457144 1.4250001 10122364
-0.21035716 -0.36507142 1.4250001 4860250
-0.20492859 -0.36507145 1.4250001 10390416
-0.19570002 -0.36561427 1.4250001 11112845
-0.18864286 -0.36371428 1.4250001 9005931
-0.21035716 -0.35692859 1.4250001 6319216
-0.20764287 -0.35692859 1.4250001 10458503
-0.19135717 -0.35421431 1.4250001 9664621
-0.18864286 -0.35692859 1.4250001 8610659
-0.21687146 -0.34281433 1.4250001 3020085
-0.19316667 -0.34561908 1.4250001 9663601
-0.2239286 -0.33358571 1.4250001 2299161
-0.21548414 -0.33491269 1.4250001 5852260
-0.20764287 -0.33385715 1.4250001 11835297
-0.19787145 -0.33467144 1.4250001 10454144
-0.23261431 -0.32544288 1.4250001 3088945
-0.22460717 -0.32616669 1.4250001 2823202
-0.21432421 -0.32602748 1.4250001 8746375
-0.20492859 -0.32586506 1.4250001 11703193
-0.19895716 -0.32652858 1.4250001 10255740
-0.2329762 -0.31802386 1.4250001 3016473
-0.22537622 -0.31476671 1.425 6305861
-0.21442857 -0.31485716 1.4249998 10785179
-0.20492861 -0.31519645 1.4250001 11046538
-0.19950001 -0.31621429 1.4250001 9927289
-0.23207144 -0.30400002 1.4250001 11441070
-0.22491562 -0.30511042 1.4250002 11441570
-0.21442859 -0.30535719 1.4250001 11703458
-0.20628573 -0.3067143 1.4250001 10716812
-0.22257143 -0.29495239 1.4250001 11176592
-0.21479872 -0.29573375 1.4250002 11505554
-0.23388097 -0.28183335 1.4250001 11900564
-0.22539015 -0.28426924 1.4250001 11636881
-0.21578574 -0.28500003 1.4250001 11505803
-0.25107142 -0.27007145 1.4250001 11770266
-0.24021429 -0.27142859 1.4250001 11835290
-0.23376785 -0.27414286 1.4250001 11900567
-0.22483334 -0.27685714 1.4250001 11768979
-0.21759526 -0.27730954 1.4250001 11572108
-0.25107142 -0.26464289 1.4250001 11835807
-0.24416235 -0.2643961 1.4250002 12032672
-0.23439798 -0.26464286 1.4250001 12032156
-0.22935715 -0.26464286 1.4250001 11901084
-0.25270003 -0.25378573 1.4250001 11112609
-0.2442857 -0.2551429 1.4249998 11770539
-0.23478574 -0.25551298 1.4250002 12230059
-0.25559524 -0.2453413 1.4250001 10916513
-0.24835716 -0.24835716 1.4250001 11704746
-0.23207144 -0.24835716 1.4250001 12559291
-0.29449999 -0.23207144 1.4250001 3284785
-0.2877143 -0.23410715 1.4250001 3481147
-0.26192862 -0.23478574 1.4250001 11177372
-0.25830954 -0.23388097 1.4250001 10915228
-0.29449999 -0.22800002 1.4250001 2297389
-0.28500003 -0.22732145 1.4250001 6050660
-0.27007145 -0.22121429 1.4250001 11309477
-0.2637381 -0.22438097 1.4250001 11177375
-0.28183335 -0.2139762 1.4250001 11835817
-0.27142859 -0.21307145 1.4250001 11309474
-0.26735714 -0.21442859 1.4250001 11507365
-0.28201431 -0.20438574 1.4250001 11440295
-0.2751984 -0.20553179 1.4250001 11440031
-0.26735714 -0.20764287 1.4250001 11441315
-0.33521432 -0.19407146 1.4250001 11966887
-0.32462856 -0.19461428 1.4250001 11507369
-0.30264288 -0.19407146 1.4250001 11638190
-0.29585716 -0.19407144 1.4250001 11703974
-0.285 -0.19542859 1.4249998 11572899
-0.27583927 -0.197125 1.4250001 11507108
-0.26735714 -0.19950001 1.4250001 11571622
-0.33358571 -0.18267143 1.4250001 10980254
-0.32602751 -0.18425825 1.4250001 10915235
-0.31350002 -0.18360206 1.4250001 11111844
-0.30380616 -0.18398982 1.4250001 12033457
-0.29585716 -0.18457143 1.4249998 11967404
-0.2859396 -0.18488462 1.4250001 11704489
-0.35285717 -0.17235714 1.4250001 11572132
-0.34661433 -0.17452858 1.4250001 11309219
-0.33487502 -0.17473215 1.4250001 11374755
-0.32707146 -0.17507143 1.4250001 11375010
-0.3127245 -0.17468368 1.4250001 11244198
-0.30535713 -0.17507143 1.4250001 11507628
-0.29630953 -0.17507143 1.4250001 11507625
-0.28635716 -0.17778571 1.4250001 11175584
-0.35361111 -0.16511904 1.4250001 11572901
-0.34498572 -0.16584286 1.425 11572391
-0.33521432 -0.16557144 1.4250001 11703464
-0.32571429 -0.16557142 1.4249998 11441575
-0.3157967 -0.16525824 1.4250001 11572902
-0.30535716 -0.16964287 1.4250001 11375528
-0.29992861 -0.16511905 1.4250001 11703464
-0.35557145 -0.15471429 1.4249998 11638698
-0.34471428 -0.1547143 1.4249998 11638444
-0.33521432 -0.15471429 1.4250001 11900585
-0.32665387 -0.15502746 1.4250001 11638442
-0.31558794 -0.15419233 1.4250001 11703976
-0.30807143 -0.15335715 1.4250001 11901100
-0.29992858 -0.15471429 1.4250001 11703978
-0.36303571 -0.14453571 1.4250001 12098995
-0.35557145 -0.14521432 1.4250001 12098992
-0.34434417 -0.14496756 1.4250002 11835565
-0.33521429 -0.14521429 1.4250001 11704491
-0.3284286 -0.14589287 1.4250001 11770540
-0.31512859 -0.14738573 1.4250001 11703975
-0.37050003 -0.13616668 1.4250001 11704749
-0.36507148 -0.13571432 1.4250001 12032944
-0.35557145 -0.13571429 1.4249998 12033201
-0.34471431 -0.13571429 1.4249998 11967410
-0.33521432 -0.13571429 1.4250001 11705008
-0.32842857 -0.13978572 1.4250001 11638958
-0.37395456 -0.12374675 1.4250002 11770284
-0.36507148 -0.12485714 1.4250001 12098737
-0.35557145 -0.12485714 1.4249998 11967923
-0.34471428 -0.12485714 1.4249998 11901872
-0.33551589 -0.1259127 1.4250001 11836336
-0.38135716 -0.11671429 1.4250001 11244455
-0.37457144 -0.11535715 1.4250001 11506857
-0.36507145 -0.11535715 1.4250001 11770029
-0.35557148 -0.11535715 1.4250001 11573675
-0.34508443 -0.11560391 1.4250002 11573673
-0.38475001 -0.1047262 1.4250001 11178662
-0.37457144 -0.10585714 1.4249998 11572904
-0.36507142 -0.10585716 1.4250001 11770029
-0.35557145 -0.10585716 1.4249998 11770800
-0.34878573 -0.10857143 1.4250001 11770280
-0.39492857 -0.093642853 1.4250001 11178667
-0.38542858 -0.094999999 1.4249998 11244713
-0.37457147 -0.094999999 1.4249998 11770286
-0.36507148 -0.094999999 1.4250001 11902128
-0.35647625 -0.095452368 1.4250001 11902128
-0.39425001 -0.087535724 1.4250001 11243172
-0.38542861 -0.084142864 1.4249998 11441574
-0.37631634 -0.085887767 1.4250001 11638186
-0.36235714 -0.088214293 1.4250001 11573681
-0.3922143 -0.076000005 1.4250001 10916005
-0.38542861 -0.074642859 1.4250001 11376297
-0.40035716 -0.061071429 1.4250001 11048101
-0.39376533 -0.063785717 1.4250001 11244711
-0.38542855 -0.065142862 1.4249998 11441577
-0.42207143 -0.052928578 1.4250001 10454686
-0.41121429 -0.050214287 1.4250001 10583950
-0.40307146 -0.052385718 1.4250001 10650270
-0.39492857 -0.054285713 1.4250001 11046824
-0.38542858 -0.054285713 1.4249998 11309737
-0.37864289 -0.052928574 1.4250001 11441067
-0.41121429 -0.044785719 1.4250001 10783911
-0.40455198 -0.044538964 1.4250002 10718368
-0.3949286 -0.044785719 1.4250001 11112617
-0.38542861 -0.044785716 1.4250001 11309735
-0.37631637 -0.044010207 1.4250001 11309991
-0.41121429 -0.035738096 1.4250001 10717343
-0.4044286 -0.035285719 1.4249998 10520478
-0.39492857 -0.035285711 1.4250001 11047077
-0.38542858 -0.035285715 1.4249998 11178409
-0.37728569 -0.036642861 1.4250001 11178409
-0.40348905 -0.024741761 1.4250001 10915491
-0.39492857 -0.024428573 1.4250001 10981028
-0.38542861 -0.024428573 1.4249998 10981541
-0.37864286 -0.027142856 1.4250001 11047332
-0.40252858 -0.015471429 1.4250001 10191771
-0.39492857 -0.014928573 1.4250001 10323096
-0.38542861 -0.014928572 1.4250001 10520731
-0.37796426 -0.014250001 1.4250001 10455709
-0.40035716 -0.0095000006 1.4250001 10848662
-0.39432541 -0.0064841271 1.4250001 10914711
-0.38542858 -0.0054285717 1.4249998 10848664
-0.37683335 -0.0049761911 1.4250001 10586009
-0.3922143 0.0013571429 1.4250001 11505817
-0.38448903 0.0051153847 1.4250001 11243415
-0.37457144 0.0054285713 1.4249998 11308696
-0.3922143 0.017642858 1.4250001 11111829
-0.38461432 0.015200001 1.4250001 11112084
-0.37457144 0.014928574 1.4250001 11177875
-0.36778572 0.01357143 1.4250001 11112602
-0.40035716 0.0285 1.4250001 11046038
-0.39425004 0.025785716 1.4250001 11046034
-0.38542861 0.024428571 1.4249998 10980499
-0.37864286 0.020357145 1.4250001 11046550
-0.40035716 0.031214288 1.4250001 10980250
-0.39492863 0.035285719 1.4250001 10980242
-0.38542858 0.035285715 1.4249998 10848912
-0.39415306 0.045173474 1.4250001 10784660
-0.38542861 0.044785719 1.4250001 10915214
-0.37864286 0.047500003 1.4250001 10914448
-0.42750004 0.050214287 1.4250001 5786979
-0.40035716 0.050214287 1.4250001 8746115
-0.39454085 0.052153066 1.4250001 8220543
-0.38574177 0.053972527 1.4250001 8285818
-0.37864286 0.050214287 1.4250001 10916240
-0.81428576 0.25921431 1.4250001 3682101
-0.80207145 0.25921431 1.4250001 3682104
-0.79935712 0.25921431 1.4250001 3681592
-0.78714287 0.25921431 1.4250001 3878715
-0.52249998 0.25921431 1.4250001 4731180
-0.82469052 0.2664524 1.4250001 3353905
-0.8134715 0.26437145 1.4250001 3485493
-0.80478573 0.26498213 1.4250001 3550773
-0.7952857 0.26464286 1.4250001 3484978
-0.78632855 0.26464286 1.4250001 3681588
-0.77492857 0.26464286 1.4250001 3812662
-0.76769054 0.26554763 1.4250001 3877941
-0.75525004 0.26667857 1.4250001 3878456
-0.74452865 0.26627144 1.4250001 4075576
-0.73475724 0.26681429 1.4250001 4339003
-0.72878575 0.26735714 1.4250001 4470588
-0.51707149 0.26518571 1.4250001 4468520
-0.8278572 0.27007145 1.4250001 3288623
-0.81021434 0.27278572 1.4250001 3287859
-0.80478573 0.27369049 1.4250001 3287859
-0.79622537 0.2738297 1.4250001 3418930
-0.78850001 0.27007145 1.4250001 3353145
-0.76135719 0.27007145 1.4250001 3681591
-0.75185716 0.27007145 1.4250001 3747125
-0.74778575 0.27007145 1.4250001 3747637
-0.72607148 0.27278572 1.4250001 3943992
-0.69350004 0.27821428 1.4250001 4010293
-0.68535721 0.27821428 1.4250001 4338232
-0.67585713 0.27821428 1.4250001 4272951
-0.6677143 0.27821428 1.4250001 4534838
-0.51888096 0.27414286 1.4250001 4928302
-0.48178574 0.27685714 1.4250001 3219734
-0.47489566 0.27508241 1.4250001 3547675
-0.46516073 0.27651784 1.4250001 3876637
-0.45532146 0.27753571 1.4250001 4138783
-0.44432861 0.27604291 1.4250001 3745562
-0.81215316 0.28674495 1.4250001 2893101
-0.80532855 0.28527147 1.4250001 3024684
-0.79528582 0.28364289 1.4250001 3221037
-0.66228575 0.28092858 1.4250001 4272186
-0.65414286 0.28364289 1.4250001 4206650
-0.64464289 0.2877143 1.4250001 4009270
-0.63107151 0.28907144 1.4250001 4270899
-0.62292862 0.28907144 1.4250001 4336690
-0.61750007 0.28907144 1.4250001 3941687
-0.53335714 0.28839287 1.4250001 6047553
-0.52482665 0.28713268 1.4250001 5454645
-0.51842856 0.28500003 1.4250001 4928301
-0.48341432 0.28527147 1.4250001 3153689
-0.47499999 0.28499997 1.4249998 3811355
-0.46453071 0.2844184 1.425 4074529
-0.45541844 0.28403065 1.4250001 4271137
-0.82487148 0.29667142 1.4250001 4469296
-0.81727153 0.29395717 1.4250001 4075567
-0.79392862 0.29314286 1.4250001 3154477
-0.78578573 0.29992858 1.4250001 3483439
-0.62473816 0.29178578 1.4250001 4074543
-0.61614287 0.29450002 1.4250001 3877675
-0.60392863 0.29992861 1.4250001 3680301
-0.5333572 0.29499355 1.4250002 5718846
-0.52521431 0.2961286 1.4250001 5323057
-0.51842856 0.29178575 1.4250001 4731688
-0.48563099 0.29698813 1.4250001 3021586
-0.47500002 0.29585719 1.4249998 3810074
-0.46821433 0.29450002 1.4250001 4336415
-0.59307146 0.30264288 1.4250001 3614509
-0.58492863 0.30264288 1.4250001 3549484
-0.57497621 0.30264288 1.4250001 3745325
-0.56185716 0.3067143 1.4250001 3548710
-0.55507147 0.30807143 1.4250001 3481894
-0.54498982 0.30690822 1.4250001 3678506
-0.53471434 0.30535716 1.4250001 4270892
-0.5256021 0.30458164 1.4250001 4337449
-0.48517859 0.30535716 1.4250001 3285780
-0.47432145 0.306375 1.4250001 4270621
-0.4682143 0.3067143 1.4250001 4468514
-0.44107145 0.30535716 1.4250001 5058600
-0.43700004 0.30535719 1.4250001 5124910
-0.78850001 0.31350002 1.4250001 2032915
-0.77492863 0.31078571 1.4250001 2954536
-0.54285717 0.31078571 1.4250001 3350562
-0.48314285 0.31395242 1.4250001 3219733
-0.47500002 0.31485713 1.4249998 3942428
-0.46767145 0.3140429 1.4250001 4402466
-0.44242859 0.3189286 1.4250001 5321264
-0.43767858 0.31417859 1.4250001 5517875
-0.47432145 0.32458335 1.4250001 2692881
-0.46705109 0.32513267 1.4250001 3415835
-0.43428576 0.32300001 1.4250001 6245965
-0.42750004 0.32300001 1.4250001 6706001
-0.17459062 -0.56365597 1.4370002 6305869
-0.16422859 -0.56385142 1.4370002 9862020
-0.15443717 -0.56306666 1.4350002 9861232
-0.14855145 -0.56149721 1.4310001 8415577
-0.19160001 -0.5515343 1.437 4204619
-0.18397512 -0.55388039 1.4370002 6182248
-0.17490344 -0.55591369 1.4370003 7497325
-0.16422857 -0.55563992 1.4370002 10389904
-0.15422066 -0.55545938 1.4330001 9664107
-0.14855145 -0.55604577 1.4310001 7889491
-0.203575 -0.54298073 1.4370002 3879236
-0.19433716 -0.54469138 1.4370002 5128775
-0.18475714 -0.5446915 1.4370002 5194054
-0.17517714 -0.54469138 1.4370002 5192791
-0.16422857 -0.54469138 1.4370002 10718606
-0.15400289 -0.54514289 1.431 9006433
-0.21596058 -0.53401661 1.4370002 3417896
-0.20528571 -0.53511143 1.4370002 3089196
-0.19396393 -0.53486264 1.4370003 3483442
-0.18475714 -0.53511143 1.4370002 3351597
-0.17517714 -0.53511149 1.4370002 6376024
-0.16460183 -0.53536028 1.4370003 10652042
-0.15536575 -0.53424013 1.431 8809061
-0.21461689 -0.52590466 1.4370003 4074551
-0.20528573 -0.52553141 1.4370002 4401975
-0.19433716 -0.52553141 1.4370002 3876147
-0.18475714 -0.52553141 1.4370002 2562344
-0.17517717 -0.52553141 1.4370002 7955566
-0.16517605 -0.52542621 1.4370002 10716801
-0.15638788 -0.52504075 1.431 8349276
-0.21281286 -0.51663572 1.437 4407369
-0.2052857 -0.51458287 1.4370002 5722710
-0.19433716 -0.51458287 1.4370002 5852243
-0.1842097 -0.5151304 1.4370002 3936038
-0.17517716 -0.51458287 1.4370002 9207681
-0.16559714 -0.51458293 1.4370002 10322560
-0.15809144 -0.51516008 1.431 8414810
-0.2395 -0.50226575 1.437 3156016
-0.20528571 -0.50500298 1.4370002 3548209
-0.19488458 -0.50500292 1.4370002 3943232
-0.184415 -0.50466073 1.4370002 4794936
-0.17472096 -0.50409055 1.4370002 10455178
-0.16544604 -0.50453556 1.4356668 9992566
-0.15854573 -0.50516582 1.4310001 7823445
-0.25044858 -0.49542287 1.437 1971232
-0.2395 -0.49816 1.437 2629418
-0.21212856 -0.49131712 1.437 5127236
-0.2052857 -0.49542287 1.4370002 4009521
-0.19433716 -0.49542284 1.4370002 3614511
-0.18472457 -0.49541661 1.4346001 4731726
-0.17511478 -0.49661955 1.4365001 10783117
-0.16578491 -0.49540454 1.4318573 9664631
-0.23813143 -0.48310572 1.437 2759456
-0.21369264 -0.48349676 1.4370002 3023673
-0.20537698 -0.48474804 1.4370003 3551806
-0.19433716 -0.4844743 1.4370002 3548968
-0.18395145 -0.48535877 1.4326364 7036518
-0.17433128 -0.48513234 1.4320588 10914186
-0.16626859 -0.48517719 1.431 9335404
-0.23402572 -0.47763142 1.437 3351078
-0.22718287 -0.47626287 1.437 2956332
-0.21486571 -0.47763142 1.437 2691102
-0.20528571 -0.4735257 1.437 2430750
-0.19433716 -0.47489434 1.4370002 2692395
-0.18418144 -0.47477001 1.4325001 8877692
-0.17481354 -0.47426683 1.4318 10782851
-0.16763145 -0.47563717 1.4310001 9267567
-0.20460144 -0.46463001 1.4370002 2103328
-0.1950987 -0.4645488 1.4356155 2561059
-0.18557388 -0.4646121 1.4319232 9272189
-0.17444572 -0.46473432 1.431 10584958
-0.16763145 -0.4620086 1.4310001 8149334
-0.25318572 -0.45026001 1.437 2234662
-0.22444573 -0.45162857 1.4370002 2364708
-0.21369265 -0.45299712 1.4370002 2234399
-0.2052857 -0.45436576 1.4370002 2234141
-0.19433716 -0.45436573 1.4370002 4995403
-0.18424669 -0.45491815 1.433 10914702
-0.17671713 -0.45564863 1.431 10782343
-0.26139715 -0.44204858 1.437 2888994
-0.25474983 -0.44361269 1.4370002 2299422
-0.24771143 -0.44204858 1.437 2627610
-0.2312886 -0.44478571 1.437 2167583
-0.2244457 -0.44478577 1.4370002 2037023
-0.21476729 -0.44458067 1.4363335 2298907
-0.20513999 -0.44447717 1.4360002 2233367
-0.19420096 -0.44447717 1.4360001 6181219
-0.18395145 -0.44442624 1.4326364 11243662
-0.17736612 -0.44487554 1.4310001 10322555
-0.26139715 -0.43931144 1.437 3086887
-0.2541633 -0.43579233 1.4370002 3022115
-0.24497427 -0.43483245 1.4370003 2825249
-0.23500329 -0.43461913 1.4370002 2890277
-0.22444572 -0.43520573 1.4370002 2758946
-0.21471712 -0.43490189 1.4360002 2234400
-0.20464145 -0.43521005 1.4325001 2494748
-0.19466802 -0.43575773 1.4334 6970985
-0.18544666 -0.43482861 1.4335002 11111823
-0.17853431 -0.43475148 1.4310001 10123382
-0.25387001 -0.42357287 1.4370002 3023145
-0.24497429 -0.42425716 1.4370002 2695209
-0.2353943 -0.42425722 1.4370002 2759976
-0.22444572 -0.42425713 1.4370002 2956072
-0.21486571 -0.42425713 1.4370002 2168861
-0.20442857 -0.42521143 1.4309999 2232869
-0.19488859 -0.42521149 1.431 8681082
-0.1854627 -0.42541435 1.4326001 11177607
-0.1785343 -0.42657432 1.4310001 9663086
-0.26139715 -0.41467714 1.437 2432542
-0.25455427 -0.41467714 1.4370002 2562591
-0.24497427 -0.41467714 1.4370002 2496806
-0.23539428 -0.41467711 1.4370002 2365988
-0.22444573 -0.41467714 1.4370002 2496031
-0.21416797 -0.41332796 1.4323335 2168095
-0.20442858 -0.41430861 1.4309999 3021869
-0.19495761 -0.41445291 1.4315 10324363
-0.18534862 -0.41430855 1.4309999 10717058
-0.29369542 -0.40208632 1.4370002 1970198
-0.28524941 -0.40216449 1.4370002 2167835
-0.26358685 -0.40318117 1.4370002 3088684
-0.2545543 -0.40509716 1.4370002 3022373
-0.24463525 -0.40453058 1.4350002 2758692
-0.23449479 -0.40491098 1.4315 2234145
-0.22451258 -0.40456173 1.4322001 2365210
-0.21585034 -0.40513259 1.4337692 2364701
-0.2044286 -0.40476856 1.431 4534590
-0.19488859 -0.40476859 1.431 11046543
-0.18671143 -0.40545005 1.431 10848389
-0.29321641 -0.39517501 1.4370002 2167577
-0.28466287 -0.39688572 1.4370002 2627104
-0.27645144 -0.39460477 1.4370002 3349801
-0.26491633 -0.39375764 1.4370002 3151650
-0.2545543 -0.39414865 1.4370002 2825261
-0.24497429 -0.39414859 1.4370002 2825517
-0.23495404 -0.39477006 1.4343001 2824480
-0.22422412 -0.39546534 1.4318572 2627616
-0.21493715 -0.39472941 1.4348572 2167580
-0.20442858 -0.39522856 1.4309999 5720158
-0.19513638 -0.39560029 1.431 11440780
-0.18671145 -0.39386573 1.4310001 10322297
-0.27417049 -0.3836562 1.4370002 7234412
-0.26550287 -0.38456857 1.4370002 6967121
-0.25455433 -0.38456863 1.4370002 6307893
-0.24497427 -0.3845686 1.4370002 5381921
-0.23522858 -0.38430291 1.4360002 3413276
-0.22409165 -0.38458994 1.4330001 2562081
-0.21462727 -0.38468289 1.4337275 2363155
-0.20415601 -0.38423488 1.431 7892343
-0.19488859 -0.38023719 1.4310001 11636886
-0.28283814 -0.37270766 1.4370002 4338244
-0.27533174 -0.37536183 1.4370003 4799056
-0.26533884 -0.37515676 1.4366002 5127510
-0.2545543 -0.37498859 1.4370002 7696001
-0.24497427 -0.3763572 1.4370002 10786429
-0.23443839 -0.37467721 1.4335715 4863529
-0.22495858 -0.37462431 1.4330001 2233890
-0.21504238 -0.37468183 1.4315455 2233126
-0.2044286 -0.37478575 1.4310001 8745340
-0.19454788 -0.37444502 1.431 11440017
-0.29369542 -0.36376628 1.4370002 3154482
-0.2849876 -0.36524034 1.4363334 4537151
-0.27509621 -0.3647438 1.4335002 4601917
-0.26517782 -0.36523938 1.4346924 4929598
-0.2545543 -0.36540854 1.4370002 4668498
-0.24412191 -0.36550003 1.432 8813957
-0.23500943 -0.36498943 1.4322858 4467255
-0.22497717 -0.3650417 1.4334002 2430494
-0.21627499 -0.36493123 1.431 2036001
-0.20361088 -0.36224747 1.4310001 11179671
-0.19519146 -0.36448857 1.431 11046026
-0.30245429 -0.35309142 1.437 2495776
-0.29467714 -0.35501307 1.4352859 2298912
-0.2842868 -0.35536319 1.4351251 2693678
-0.27508286 -0.35582858 1.4370002 3154484
-0.26550287 -0.35582858 1.4370002 3483962
-0.25455433 -0.35582858 1.4370002 4665156
-0.24463332 -0.35533333 1.4350002 5392216
-0.23459752 -0.35462111 1.432125 3283237
-0.22487146 -0.35434291 1.431 2430241
-0.21560405 -0.35407031 1.431 3942454
-0.20415603 -0.35407034 1.431 11507352
-0.19644614 -0.35492697 1.4310001 11045763
-0.32708859 -0.3407743 1.437 3414838
-0.29393876 -0.34594443 1.4370002 2956067
-0.28466284 -0.34488004 1.4370002 2957094
-0.27508286 -0.34525323 1.4370003 3153192
-0.26565918 -0.3451584 1.4357145 3348771
-0.25528172 -0.34483719 1.4334 6048859
-0.24556908 -0.34516525 1.4325001 5782591
-0.23503365 -0.34482661 1.4328463 4337980
-0.22487146 -0.34480292 1.431 2364187
-0.21357924 -0.34519228 1.4310001 7366517
-0.2044286 -0.34480292 1.431 11768988
-0.1976143 -0.34480292 1.4310001 10783622
-0.32708859 -0.33666855 1.437 4988964
-0.29346082 -0.33490902 1.4370002 3020848
-0.28466284 -0.33530003 1.4370002 3023404
-0.27404913 -0.33458406 1.4316 3615279
-0.26408368 -0.33477962 1.4314286 4271159
-0.25495145 -0.3350195 1.4315455 4338244
-0.24531429 -0.33526286 1.4309999 4864849
-0.23494908 -0.3358348 1.4315 4469054
-0.2262343 -0.33662575 1.4310001 2497057
-0.21215145 -0.33753431 1.4310001 10457495
-0.20458002 -0.33662573 1.431 11703704
-0.29466397 -0.32540417 1.4370002 10254455
-0.28524941 -0.32552451 1.4370002 9134683
-0.27536941 -0.32532942 1.4344288 7489346
-0.26522571 -0.32537717 1.4355001 5911864
-0.25485429 -0.32436004 1.431 5055275
-0.2453143 -0.32436001 1.4309999 4070449
-0.23655309 -0.32455474 1.4310001 3021618
-0.22759716 -0.32436001 1.4310001 1905950
-0.21396859 -0.32299718 1.4310001 11775393
-0.20670001 -0.32299718 1.4310001 11703451
-0.29561144 -0.31477141 1.4370002 10847635
-0.28493658 -0.31449774 1.4370003 10913434
-0.27538526 -0.31501478 1.4350002 10850469
-0.26485288 -0.31537098 1.4335001 11574951
-0.25485432 -0.31482002 1.431 11771802
-0.2453143 -0.31481999 1.431 10914428
-0.23611501 -0.31447935 1.431 9531483
-0.22487144 -0.31754574 1.4310001 3801387
-0.20851716 -0.31482002 1.4310001 11112595
-0.30245429 -0.30519146 1.437 12031635
-0.29561144 -0.30519146 1.4370002 11638419
-0.28466284 -0.30519146 1.4370002 11572117
-0.27435428 -0.30522689 1.4346001 11308435
-0.26439428 -0.30528 1.4309999 11111059
-0.25485432 -0.30528006 1.431 11243935
-0.2453143 -0.30528003 1.4309999 11506593
-0.23532003 -0.30528003 1.431 11572639
-0.2262343 -0.30119145 1.4310001 11045791
-0.21942002 -0.30528003 1.4310001 11571871
-0.30519146 -0.29287428 1.4370002 11900821
-0.29561144 -0.29561138 1.4370002 11769493
-0.28466287 -0.29561141 1.4370002 11835541
-0.27498811 -0.29550713 1.4365001 11769750
-0.26446465 -0.29445463 1.4313749 11834774
-0.25494432 -0.2944805 1.4315 11769240
-0.2453143 -0.29437718 1.4309999 11835289
-0.23468404 -0.29464978 1.431 11768213
-0.2262343 -0.29437715 1.4310001 11241872
-0.21942002 -0.29846576 1.4310001 11307926
-0.30494261 -0.28503609 1.4370003 11900823
-0.29561141 -0.28466287 1.4370002 11900567
-0.28466284 -0.28466287 1.4370002 11900822
-0.27495524 -0.2859 1.4363334 11835288
-0.26439431 -0.28483716 1.431 11900569
-0.25485432 -0.28483716 1.431 11835031
-0.24531429 -0.28483716 1.431 11900569
-0.23622859 -0.28574574 1.4310001 11834773
-0.22487144 -0.28756288 1.4310001 11440015
-0.32708859 -0.27508289 1.437 11900580
-0.31796479 -0.27325809 1.437 11901864
-0.30480042 -0.2758649 1.4370002 12163743
-0.29561144 -0.27508289 1.4370002 11966618
-0.28466284 -0.27508286 1.4370002 12031899
-0.27412763 -0.27548763 1.432 11966617
-0.26439431 -0.27529719 1.4309999 12031897
-0.2551021 -0.27566883 1.431 11900825
-0.2458984 -0.27568653 1.431 11835289
-0.23850003 -0.27666003 1.4310001 11835035
-0.32298285 -0.26413429 1.437 12032942
-0.31487671 -0.26455539 1.4370002 11967147
-0.30491772 -0.26468173 1.4370002 11967146
-0.29561141 -0.26550287 1.4370002 11901607
-0.2846204 -0.26493129 1.4354001 11967142
-0.27479279 -0.26513475 1.4333076 11967141
-0.26439431 -0.26439431 1.4309999 11901346
-0.25621715 -0.26439431 1.431 11769502
-0.24667716 -0.26848286 1.4310001 12032667
-0.23850001 -0.26575714 1.4310001 12097692
-0.34214288 -0.25592285 1.437 10258073
-0.33475256 -0.2542806 1.4370002 9010321
-0.32666752 -0.25423852 1.4370002 9602972
-0.31477144 -0.2545543 1.4370002 10983333
-0.30519146 -0.25455433 1.4370002 11507885
-0.29600245 -0.25514087 1.4370002 11638953
-0.28495097 -0.2548843 1.4349999 11705002
-0.27492547 -0.25460649 1.431 11836332
-0.26439428 -0.25485429 1.431 11704488
-0.25539944 -0.25594458 1.4310001 11309467
-0.38319999 -0.24223714 1.437 5904392
-0.35309142 -0.2436057 1.437 4208188
-0.34351146 -0.24406189 1.4370002 5327183
-0.33514446 -0.24486062 1.4363334 5458769
-0.32571888 -0.24402002 1.4346 3743306
-0.31455338 -0.24480477 1.4360002 4141403
-0.30476543 -0.2446346 1.4350001 6050429
-0.29416656 -0.24487716 1.4318572 8287639
-0.28458935 -0.24494264 1.431 9865633
-0.27502459 -0.24504173 1.431 11047077
-0.2653378 -0.2449998 1.431 11178656
-0.25485432 -0.24440573 1.4310001 10784416
-0.38456857 -0.2395 1.437 10054224
-0.36403999 -0.23402572 1.437 10322030
-0.35496524 -0.23472975 1.4346001 7753801
-0.34460825 -0.2352111 1.4358751 6174018
-0.3348324 -0.23506479 1.4350002 4991538
-0.32486713 -0.23478216 1.4332501 4070954
-0.31460202 -0.23487982 1.4319232 3479581
-0.30543301 -0.23446766 1.4330001 2955308
-0.29574004 -0.23495658 1.431 2627643
-0.28483716 -0.23495661 1.431 6309728
-0.27529716 -0.23441143 1.4309999 11506336
-0.26636288 -0.23486573 1.431 11374750
-0.25594458 -0.23577431 1.4310001 10914460
-0.36431369 -0.22526686 1.4370002 11112352
-0.35610005 -0.22458193 1.4335002 11572894
-0.34414306 -0.22434045 1.4370002 11572892
-0.33473715 -0.22470117 1.4334002 11441559
-0.32436001 -0.22487146 1.431 10848383
-0.31508404 -0.22451143 1.4322 9597026
-0.30528006 -0.22487146 1.431 7490374
-0.29425326 -0.22462368 1.431 5907248
-0.28483716 -0.22448206 1.4310001 8808830
-0.27566886 -0.22511925 1.431 11703973
-0.26757431 -0.22668859 1.4310001 11637666
-0.37088287 -0.21212856 1.437 11507873
-0.36404002 -0.21212856 1.437 11638945
-0.35582855 -0.21418142 1.4370002 11506086
-0.34525323 -0.21511452 1.4370003 11638182
-0.33412719 -0.21465002 1.431 11244453
-0.32452786 -0.21544287 1.4317499 11047588
-0.31494108 -0.21504028 1.4315454 11244197
-0.30528003 -0.21533145 1.4309999 11441317
-0.29437715 -0.21533145 1.4309999 11441565
-0.28544289 -0.21548288 1.431 11508129
-0.27693257 -0.21614917 1.431 11507365
-0.3732779 -0.203575 1.4370002 11703974
-0.36502004 -0.20483612 1.4364548 11046049
-0.3552736 -0.20496573 1.4347501 11309220
-0.34504482 -0.20457429 1.432 11375528
-0.33526286 -0.20442858 1.4309999 11375525
-0.32445595 -0.20507511 1.4314286 11375270
-0.31482005 -0.2044286 1.431 11441061
-0.30528 -0.2044286 1.4309999 11572135
-0.29464975 -0.20470119 1.431 11440804
-0.28688145 -0.20647287 1.4310001 11374755
-0.38251573 -0.19365287 1.437 11507623
-0.37557513 -0.19453269 1.4370002 11046558
-0.36442801 -0.19488859 1.431 10586782
-0.35434288 -0.19488858 1.431 11244456
-0.34480292 -0.19488858 1.431 11507878
-0.33526289 -0.19488859 1.431 11376296
-0.32245204 -0.19597887 1.4310001 11441059
-0.31482002 -0.19488859 1.431 11506086
-0.30800575 -0.19488859 1.4310001 11375013
-0.38422644 -0.184415 1.4370002 11902634
-0.37496161 -0.1840727 1.4316667 11310500
-0.36524576 -0.1853486 1.4309999 10980764
-0.35434288 -0.1853486 1.4309999 10783903
-0.34480292 -0.1853486 1.431 10652061
-0.33696645 -0.18705215 1.431 10782879
-0.32081661 -0.18616629 1.4310001 11112352
-0.31482005 -0.18671143 1.4310001 11243943
-0.30882347 -0.18616629 1.4310001 11639979
-0.40099144 -0.17654571 1.437 11311273
-0.39004287 -0.17107143 1.437 11311276
-0.38443574 -0.17511764 1.4365003 11508137
-0.37504956 -0.17456953 1.432 11178405
-0.36524576 -0.1744457 1.4309999 11178659
-0.35638714 -0.17580858 1.431 11309731
-0.34480292 -0.17619798 1.4310001 11178147
-0.33935145 -0.1785343 1.4310001 11112354
-0.32027146 -0.17580859 1.4310001 11309729
-0.31754574 -0.17717144 1.4310001 11375522
-0.40509713 -0.16103524 1.4370002 11245219
-0.39278004 -0.16286001 1.4370002 11244972
-0.38467249 -0.16453794 1.4364548 11507114
-0.37513748 -0.16505811 1.4323334 11243427
-0.36561742 -0.16515353 1.431 11310501
-0.35843146 -0.16490573 1.4310001 11507363
-0.34207717 -0.16218002 1.4310001 11703977
-0.41194001 -0.15191144 1.437 11704737
-0.4047021 -0.15460494 1.4342728 11045276
-0.39540401 -0.15412001 1.4346001 11046304
-0.38444045 -0.15482861 1.4314286 11440547
-0.37478575 -0.15536575 1.431 11441061
-0.36660859 -0.15536575 1.431 11638442
-0.41285241 -0.14415619 1.4370002 11046560
-0.40516391 -0.14557846 1.4359093 10981024
-0.39523596 -0.14506572 1.433143 11244452
-0.38432574 -0.14446285 1.4309999 11442089
-0.37503356 -0.14483456 1.431 11507627
-0.36824402 -0.14637087 1.4310001 11902128
-0.3502543 -0.14855145 1.4310001 11901871
-0.41412973 -0.13494115 1.4370002 11046553
-0.40281618 -0.13275144 1.4370002 10981027
-0.3952989 -0.13477144 1.4352001 11638694
-0.38432574 -0.13492286 1.431 11573416
-0.37556452 -0.13492286 1.4310001 11638442
-0.42562571 -0.12180286 1.437 10586271
-0.41330859 -0.12454 1.4370002 11179169
-0.40591827 -0.12481371 1.4370002 11441060
-0.39462262 -0.12468988 1.4314616 11638186
-0.38526925 -0.12569736 1.431 11375526
-0.37683004 -0.12742715 1.4310001 11704491
-0.43201238 -0.11176668 1.437 10783129
-0.42535201 -0.11413886 1.4370002 10586270
-0.41412973 -0.11441257 1.4370002 10916256
-0.4057624 -0.11476143 1.4345001 11112098
-0.39522856 -0.11448 1.4309999 11309223
-0.38659716 -0.11432859 1.431 11178662
-0.43344611 -0.10616204 1.4370002 10849951
-0.42425716 -0.10538001 1.4370002 10586011
-0.41467714 -0.10538 1.4370002 10979742
-0.40533814 -0.10508666 1.4330001 11046307
-0.39604631 -0.10521258 1.431 11243942
-0.44314346 -0.093884006 1.4370002 11442342
-0.43467933 -0.095273629 1.4370002 10718623
-0.42403498 -0.095752142 1.4362501 10455195
-0.41323626 -0.095468581 1.432 10784168
-0.40476859 -0.09540002 1.431 10981542
-0.39659145 -0.098125719 1.4310001 11704231
-0.44341719 -0.086219996 1.4370002 11244966
-0.43481472 -0.085437968 1.4370002 10652060
-0.42503721 -0.084733352 1.4350002 10388891
-0.41430861 -0.084497154 1.4309999 10718368
-0.40476859 -0.084497154 1.431 11112867
-0.39693215 -0.082793579 1.431 11441834
-0.43383712 -0.075271435 1.4370002 10389401
-0.42503718 -0.075166672 1.4350001 10323867
-0.41430864 -0.07495714 1.431 10783902
-0.40476862 -0.07495714 1.431 11309476
-0.39737022 -0.074567758 1.4310001 11112613
-0.45026001 -0.062954284 1.437 11244969
-0.44478577 -0.063540824 1.4370002 10784675
-0.43557897 -0.065567009 1.4370003 10323867
-0.42505741 -0.065164 1.4313999 10652059
-0.41430861 -0.065417148 1.4309999 10455198
-0.40501639 -0.065788828 1.431 10850721
-0.39822686 -0.067325145 1.4310001 11244967
-0.44387335 -0.055199046 1.4370002 10520473
-0.43536004 -0.054593336 1.4330001 10126490
-0.42552593 -0.054828797 1.431 10389659
-0.414698 -0.055098373 1.431 10455707
-0.40545002 -0.055195719 1.431 10587551
-0.44341716 -0.045162864 1.4370002 10388112
-0.43576795 -0.045077782 1.4343334 10125721
-0.42521149 -0.04497429 1.431 10192540
-0.41703436 -0.04497429 1.4310001 10848929
-0.40476859 -0.047700003 1.4310001 10717087
-0.44204858 -0.039688572 1.437 10653601
-0.43540126 -0.03695143 1.4370002 10784673
-0.42521143 -0.035434287 1.4309999 10848924
-0.41658008 -0.035282861 1.431 10717086
-0.44204858 -0.026002858 1.437 10520218
-0.43557897 -0.024758706 1.4370003 10389919
-0.42493889 -0.024258861 1.431 10521247
-0.41458118 -0.024258859 1.431 10783906
-0.43557897 -0.014805456 1.4370003 10914456
-0.42457262 -0.015269143 1.4316 10717078
-0.41430864 -0.014991431 1.431 10650777
-0.40545002 -0.01431 1.4310001 10125977
-0.43510047 -0.0060006599 1.4370002 11309464
-0.4239977 -0.005451906 1.4315 11243928
-0.41430861 -0.0054514292 1.4309999 11374747
-0.40501639 -0.0050797402 1.431 11308952
-0.39840859 -0.0022714289 1.4310001 11243674
-0.43414128 0.0071469853 1.4370002 11112598
-0.42474103 0.0054638097 1.434 11177878
-0.41430861 0.0054514292 1.4309999 11243414
-0.40476859 0.0054514296 1.431 11178132
-0.39561802 0.0060355114 1.431 11243413
-0.4352057 0.015054286 1.4370002 11177624
-0.42444479 0.015012382 1.4330001 11111830
-0.41430864 0.014991431 1.431 11177621
-0.40476862 0.014991431 1.431 11046550
-0.39577374 0.014446286 1.431 11177621
-0.44478574 0.02600286 1.4370002 11177621
-0.43559501 0.024285056 1.4351538 11243160
-0.42517737 0.024816195 1.4318 11112084
-0.41430861 0.024531431 1.4309999 11112084
-0.40501642 0.024159741 1.431 11046034
-0.39795429 0.021805715 1.4310001 11111828
